137.5,137.0,141.0,148.5,153.25,164.25,170.75,171.75,168.0,160.5,149.0,140.75,129.5,120.0,115.5,114.5,116.5,118.75,124.5,129.5,134.0,132.5,127.0,120.5,119.5,120.25,122.75,127.0,130.0,137.5,147.5,152.75,155.25,156.5,161.5,172.5,185.25,189.75,192.5,192.25,180.5,172.5,162.75,159.5,160.75,157.25,158.75,165.75,173.0,175.5,182.25,196.5,203.75,208.0,215.5,222.5,225.75,230.25,233.0,229.5,218.5,205.5,194.75,188.5,187.5,183.5,177.75,174.0,172.5,172.25,168.5,163.75,159.75,156.5,154.25,153.5,154.25,151.0,150.5,151.25,152.25,152.5,151.5,151.5,153.0,154.0,154.25,154.5,155.0,155.75,156.25,154.25,156.25,159.0,164.0,167.75,163.75,162.5,162.5,161.0,163.75,167.0,169.75,171.5,172.0,174.0,175.5,176.0,177.0,179.25,179.5,181.0,182.75,183.5,185.0,187.5,195.25,203.75,207.5,211.25,209.25,204.75,197.75,192.5,188.5,187.5,189.75,193.0,196.0,200.5,202.0,199.5,199.25,200.0,204.5,211.5,215.0,218.25,220.0,218.5,215.5,215.5,219.0,220.0,220.5,223.75,224.25,225.5,232.0,239.75,244.5,252.5,267.0,277.0,288.25,302.0,309.75,310.5,306.0,294.75,280.25,272.75,281.25,290.5,289.5,272.25,250.0,239.5,243.0,243.0,235.0,226.25,225.25,225.5,228.25,231.5,235.25,235.0,231.0,225.0,229.25,241.0,242.5,240.5,238.75,238.5,241.75,250.75,256.0,258.0,257.25,261.75,268.25,275.5,279.75,290.75,297.0,286.0,270.5,259.75
144.0,141.0,146.5,150.475376,150.0,155.0,159.5,158.0,153.8434941,147.5,137.5,132.0,124.0,118.3248243,115.0,115.0,117.0,119.0,123.6343391,128.5,130.5,125.5,120.0,118.3163966,118.5,120.0,120.5,123.5,129.7232756,138.0,149.0,153.0,157.0,157.9016779,164.0,172.0,179.0,180.5,183.216593,185.0,174.5,165.5,159.0,154.4657102,153.0,155.5,160.5,167.5,176.5560802,183.5,190.0,201.0,204.0,207.8363186,217.5,217.0,216.5,222.0,227.8529572,231.0,226.0,211.0,195.0,189.1932051,185.5,181.5,179.0,176.5,174.4727629,173.5,172.5,168.0,163.0,160.2073944,158.5,156.0,155.5,154.0,153.8796965,153.0,154.0,153.5,152.0,152.2669145,153.0,153.0,153.5,154.5,155.0445697,155.5,156.5,154.5,155.5,156.3168973,159.5,166.0,165.5,163.0,161.7564143,161.5,163.5,165.0,168.0,170.1453169,171.5,174.5,176.0,178.0,178.1642164,178.0,178.5,180.0,183.5,186.6035993,188.5,193.0,198.5,201.0,201.7625573,204.5,208.0,206.5,201.5,197.0628002,191.5,189.5,192.5,197.0,197.9247819,202.5,204.5,200.5,201.0,203.939045,207.5,211.5,212.5,217.0,220.181351,221.0,221.0,220.0,221.0,223.2883508,227.0,228.0,226.0,227.0,231.6278056,237.5,241.0,249.5,268.0,276.2866351,285.5,292.5,295.0,298.0,298.7700798,296.0,286.5,280.5,298.0,303.1151224,298.0,273.5,253.0,249.0,253.6163562,251.5,242.5,231.0,229.0,228.195331,229.5,237.5,237.5,231.5,227.8857518,227.0,232.5,239.0,239.5,237.922926,236.5,238.0,238.0,246.5,249.3651275,253.0,252.0,255.0,264.0,270.6123674,275.0,290.5,293.5,275.5,262.9249162,249.5
153.75,151.25,154.25,156.5,151.0,145.75,147.5,145.0,141.5,136.75,128.5,123.75,118.0,115.0,114.75,115.25,117.5,119.5,122.5,124.25,124.5,119.75,117.0,115.5,117.0,118.25,119.5,124.25,131.0,140.75,144.75,145.25,149.0,154.0,160.25,165.5,168.0,174.25,180.0,181.0,170.0,158.0,152.5,150.0,150.25,158.75,167.25,171.5,179.5,188.0,196.75,201.0,199.5,204.0,211.75,207.0,208.25,218.5,223.0,227.5,224.75,214.25,200.75,194.5,186.75,181.0,178.75,180.75,178.5,179.5,180.0,176.0,170.25,167.5,167.0,161.0,159.0,158.5,158.0,155.75,155.5,154.25,153.0,153.5,153.25,152.75,153.75,155.0,155.5,156.0,156.75,155.25,155.25,155.0,156.5,159.75,162.5,160.75,159.5,160.25,163.5,165.25,168.0,170.0,171.0,174.75,175.25,179.0,179.5,178.0,179.25,180.5,185.5,190.0,194.5,199.75,204.25,201.25,199.0,203.75,210.0,211.25,206.5,201.5,196.0,192.75,195.0,198.75,199.5,203.75,208.0,205.25,204.75,208.0,210.0,211.0,210.25,212.75,217.5,222.0,223.5,222.75,221.0,222.0,226.5,231.0,232.25,235.5,236.0,236.25,240.75,248.5,261.0,268.0,271.75,276.0,285.5,297.5,305.5,306.0,292.75,289.0,308.5,313.5,302.0,277.75,257.5,261.25,268.5,263.75,247.5,234.75,231.25,230.0,231.25,235.0,234.25,229.25,226.0,229.25,237.0,243.5,237.5,236.0,235.5,238.25,237.0,240.5,243.5,246.25,247.25,256.0,268.0,272.5,280.0,293.75,295.25,274.25,258.5,247.5
166.75,165.5,162.5,161.5,154.25,138.5,132.75,131.0,128.5,126.0,120.25,115.25,112.75,112.5,113.75,113.25,115.75,119.0,117.5,118.0,119.5,115.5,114.5,115.5,116.5,118.25,121.0,129.75,134.0,137.25,134.5,135.0,137.25,143.0,148.25,153.25,159.75,172.25,177.5,172.5,160.0,150.25,145.5,148.5,154.75,169.25,175.75,178.75,185.0,192.25,200.0,195.75,190.75,194.0,197.0,199.0,204.75,211.25,218.0,222.0,225.75,218.25,209.5,198.5,186.75,184.0,184.75,189.0,189.5,187.75,190.0,187.5,180.25,176.5,172.25,165.0,162.0,160.0,158.0,156.5,155.5,154.25,153.75,153.5,153.5,154.0,155.0,155.5,156.0,155.5,157.0,156.5,156.25,156.0,157.5,157.5,158.0,158.25,158.5,161.5,163.0,165.25,168.75,170.5,171.0,174.0,175.5,179.25,178.0,177.5,178.75,179.75,186.25,191.0,195.75,204.0,209.0,206.0,207.0,211.0,213.75,216.75,212.75,206.5,200.75,198.75,198.5,202.0,201.5,203.5,209.75,212.25,211.25,211.5,212.25,212.5,211.0,211.5,214.0,219.0,223.0,224.25,224.0,222.0,226.0,231.75,240.25,246.0,247.0,242.25,242.75,245.5,251.5,253.0,257.0,268.5,285.5,312.75,327.5,322.75,301.5,299.5,320.5,321.5,305.25,282.25,268.5,272.25,278.0,271.75,252.5,238.75,233.5,232.0,231.75,229.5,230.0,229.0,229.5,231.0,233.25,247.75,244.0,237.5,235.0,236.75,239.0,238.75,241.0,244.25,247.0,252.75,267.0,272.5,281.5,291.0,299.75,283.0,269.5,265.0
165.0,165.75,158.0,151.5,144.75,132.75,122.0,120.5,119.0,115.5,113.0,111.25,111.25,111.5,111.0,111.0,113.25,115.5,114.5,114.5,115.5,114.0,115.0,119.0,119.25,118.5,123.0,127.75,130.0,128.75,126.75,133.0,138.75,144.0,149.0,155.0,164.5,169.25,166.5,159.0,151.0,145.25,146.5,155.0,161.25,170.25,179.75,187.75,194.0,196.75,200.0,189.5,183.5,185.0,186.0,195.5,198.75,203.75,214.5,217.25,223.75,222.75,213.0,200.5,191.5,193.5,198.0,200.0,198.5,196.0,195.0,189.75,179.5,174.0,170.5,166.75,161.75,157.25,155.5,153.5,154.25,154.0,153.25,151.0,151.75,154.5,155.0,155.75,156.0,156.25,157.25,157.0,156.75,155.5,157.5,158.5,158.75,158.5,160.5,163.5,164.5,167.5,171.0,174.0,174.75,176.25,177.5,180.25,178.5,177.25,178.0,180.0,184.75,187.0,191.25,198.5,204.25,208.25,208.0,210.75,212.75,216.75,212.75,208.0,207.0,203.25,201.75,203.5,202.5,202.75,211.0,216.5,218.0,213.5,215.5,218.25,217.75,217.25,216.0,219.0,222.75,228.5,230.5,231.0,230.25,234.0,243.75,252.0,252.5,252.25,249.25,248.75,253.0,255.5,262.25,275.25,287.75,313.5,332.0,331.25,315.0,317.75,331.5,323.5,303.75,287.0,283.75,283.25,280.5,270.5,251.75,243.0,237.5,233.0,231.5,229.0,228.75,229.0,230.0,231.25,231.25,239.0,245.25,240.5,233.25,233.75,239.5,242.75,246.0,248.75,249.0,252.25,260.75,267.5,276.0,285.5,299.0,299.25,290.0,285.0
150.75,156.75,143.0,132.0,129.5,126.5,115.5,112.5,111.5,108.25,108.5,108.5,110.0,109.5,109.75,110.75,111.25,112.5,112.5,112.75,113.5,114.5,118.5,120.0,118.5,117.25,118.0,121.25,122.0,123.75,128.5,135.5,144.25,149.0,153.25,157.25,163.5,159.75,151.5,143.5,140.25,142.75,152.25,159.0,165.0,167.75,176.5,188.25,192.5,192.25,194.75,187.25,175.0,177.0,185.5,189.25,189.5,196.75,205.5,209.75,219.5,224.0,218.25,209.5,200.75,200.5,203.75,197.5,192.5,188.0,183.25,175.5,171.25,170.5,167.0,164.5,159.75,156.5,155.5,155.0,155.0,154.75,153.75,151.5,152.25,154.5,155.5,156.0,156.5,157.75,157.75,157.75,158.0,157.5,157.75,159.0,159.5,159.75,161.5,164.0,165.75,168.25,171.75,175.0,177.25,178.25,179.0,181.25,181.5,181.75,182.5,184.0,187.25,187.0,188.5,190.5,193.0,197.25,198.0,199.5,205.5,207.5,208.25,209.0,211.5,210.0,209.5,208.5,205.0,206.0,213.25,219.0,224.75,225.5,225.75,226.25,224.5,223.0,220.0,221.5,224.75,230.5,235.25,239.5,239.25,239.0,241.75,251.25,257.5,264.25,260.0,255.25,257.5,264.0,275.25,286.25,293.25,310.5,331.0,337.25,329.0,332.0,340.25,329.0,311.75,303.25,297.0,286.0,275.0,262.25,253.25,250.5,244.25,239.5,232.0,230.0,229.25,230.25,231.5,231.25,230.75,232.5,240.75,244.0,236.0,234.75,240.0,249.5,252.0,254.25,256.5,258.5,264.25,272.0,279.75,290.5,300.75,311.25,305.5,296.25
145.5,148.0,136.0,126.5500992,121.0,117.0,111.0,108.5,107.2294637,106.0,107.0,107.5,109.0,108.863348,109.5,110.0,111.0,111.5,111.3847396,111.0,111.5,114.0,117.0,117.0085234,117.0,117.5,116.0,118.0,119.661762,122.0,126.0,132.0,140.0,142.3239583,146.5,150.5,153.5,149.5,143.3718263,137.5,136.5,141.0,150.5,157.3203716,166.5,172.5,180.0,187.0,187.1639287,183.5,186.5,185.5,173.0,173.1901314,180.0,182.0,187.5,197.0,202.8921902,208.5,216.5,221.5,220.5,215.5956081,205.0,198.0,196.5,192.0,186.6934035,179.5,173.5,169.5,167.0,166.6453231,164.0,162.5,158.5,157.0,156.201081,155.5,155.0,154.5,154.0,153.5816014,153.0,154.5,156.0,156.5,156.9951951,158.0,158.5,157.5,157.5,157.6447097,157.5,158.5,158.5,160.5,162.2071949,163.5,163.5,166.0,169.5,172.3166217,176.0,178.0,179.5,182.5,185.463486,187.5,187.0,189.5,190.0,189.4541811,189.0,190.0,189.5,191.0,193.0140633,195.0,200.0,200.5,203.5,207.4563032,213.0,214.5,212.0,212.0,211.7762102,216.0,218.5,224.0,232.5,233.0055864,234.0,232.5,227.5,225.0,225.1710576,224.0,226.0,229.5,236.5,242.9591605,247.0,246.0,242.5,252.5,260.419114,268.5,266.5,260.0,262.0,269.0576741,281.0,296.5,308.5,318.5,336.5976446,346.0,343.5,346.0,349.5,340.9191034,326.5,317.5,302.5,280.5,271.8440617,261.5,261.0,256.0,246.5,242.6962399,235.0,230.5,230.0,230.5,231.5954158,231.0,232.0,234.5,238.0,241.7639783,240.5,237.0,240.5,249.0,251.0153723,256.5,265.0,267.0,275.0,278.7194964,285.5,298.0,302.5,313.5,310.2655222,301.0
141.75,136.75,126.75,119.5,111.75,108.75,106.0,105.75,105.0,105.75,106.0,106.75,108.0,108.0,108.75,109.0,110.0,111.25,112.5,111.75,112.0,113.75,114.0,115.0,116.5,117.5,115.75,118.25,119.0,121.25,123.5,125.75,131.5,133.0,136.75,141.75,141.75,139.25,135.5,135.0,135.75,141.25,150.75,156.0,166.25,175.0,180.5,183.0,179.0,175.0,181.75,183.75,174.25,170.5,175.5,179.75,186.5,196.25,200.5,206.25,212.25,217.25,219.5,216.0,206.5,197.25,189.0,186.75,182.0,176.75,170.75,167.0,166.25,164.5,161.25,161.5,158.5,157.5,156.5,155.5,155.75,155.25,154.0,154.5,154.5,155.0,156.5,157.0,157.5,158.0,158.75,158.25,157.0,157.0,159.0,159.25,159.25,161.75,164.5,164.0,163.0,164.75,167.0,171.5,174.25,174.5,177.75,183.0,188.0,191.25,194.5,195.75,193.0,192.0,192.0,192.75,189.75,190.25,191.0,192.75,197.75,199.25,200.5,207.0,213.25,214.5,214.25,213.5,215.0,221.5,223.0,227.25,232.0,235.5,234.0,230.5,226.5,228.5,232.5,230.5,228.0,229.5,236.25,245.0,252.0,252.0,247.0,251.75,257.5,264.5,270.75,266.25,266.75,271.5,280.25,301.75,321.75,335.0,350.0,359.5,358.75,357.5,359.75,352.5,342.5,324.75,300.0,279.25,274.0,273.25,277.0,266.0,249.75,247.5,245.25,235.5,231.0,231.25,232.5,231.75,233.5,236.5,237.25,239.5,241.0,240.75,242.75,248.5,250.5,256.25,269.25,274.75,277.25,280.0,282.75,294.25,296.5,307.5,311.0,301.75
126.0,121.75,111.25,108.0,105.0,103.75,103.0,104.5,106.0,107.25,106.75,106.0,108.0,108.0,108.25,108.25,110.0,113.0,113.5,112.75,114.5,115.0,114.25,115.0,116.75,117.25,116.0,119.25,120.0,121.0,122.75,123.25,124.5,126.0,128.25,130.5,132.25,130.25,130.5,133.5,135.0,139.75,150.5,155.5,162.0,169.5,174.75,169.25,166.0,168.75,180.0,180.25,169.5,167.0,172.75,178.75,187.25,195.75,199.0,205.75,211.25,211.5,209.0,208.5,206.75,200.5,192.25,188.0,185.5,181.0,177.25,170.5,166.75,165.5,163.0,162.0,158.75,157.75,157.0,156.0,156.5,155.5,154.0,154.5,155.0,155.0,156.0,156.75,158.0,158.25,158.5,159.5,159.5,159.0,161.0,160.75,160.75,162.0,164.5,165.25,163.25,164.25,165.0,167.5,171.0,172.0,175.75,179.5,186.0,192.25,199.75,201.75,198.5,199.0,197.75,194.5,191.25,191.25,192.0,192.0,192.75,196.0,199.75,203.0,204.25,207.0,211.25,212.5,211.5,218.75,222.25,221.75,221.25,225.0,226.5,224.0,228.0,237.0,241.0,238.25,232.75,230.5,235.5,245.0,257.5,263.75,259.0,254.25,254.5,263.25,272.5,281.75,278.5,277.5,285.0,297.25,319.5,345.0,360.0,372.25,378.75,379.25,373.25,365.5,349.75,325.0,298.5,287.0,291.5,296.75,294.25,277.5,261.5,259.0,255.0,245.0,235.25,236.25,237.5,237.25,237.0,241.0,240.5,236.5,235.75,243.0,244.0,247.0,251.0,252.75,266.5,270.75,270.5,272.5,273.0,281.0,282.0,292.75,303.5,302.5
112.25,106.0,102.75,102.5,101.75,102.0,102.5,103.75,106.5,107.0,106.5,106.5,108.75,109.0,108.75,109.75,111.75,114.5,115.5,114.25,116.0,117.5,118.25,118.0,118.0,118.25,118.5,119.75,121.0,122.75,122.5,122.75,123.75,125.5,127.25,127.0,127.5,129.5,130.5,131.75,133.0,134.5,143.25,148.5,153.5,161.25,160.75,155.25,157.5,166.75,175.0,171.75,163.75,164.5,172.5,183.75,194.75,199.5,202.5,207.75,211.25,203.0,196.0,199.0,204.0,206.75,205.5,198.75,192.5,185.75,177.75,171.75,168.5,168.0,165.5,164.0,161.25,158.25,158.0,157.0,156.25,155.25,154.75,154.5,154.25,155.25,156.0,156.25,158.0,158.25,158.0,159.0,161.25,161.0,160.5,161.5,161.0,161.25,162.0,162.5,160.0,160.5,163.0,165.0,168.5,171.25,174.0,178.5,184.0,187.0,193.75,196.25,198.5,201.5,201.75,197.75,193.0,190.25,190.0,190.25,190.5,193.25,195.25,197.5,197.25,201.75,204.75,206.0,207.0,212.25,215.0,213.25,214.75,216.5,220.75,222.5,229.0,238.25,244.0,245.25,240.0,234.25,234.75,242.0,253.25,267.25,268.25,266.0,267.5,271.25,280.0,293.25,295.5,295.5,301.75,299.25,311.75,338.75,357.0,374.5,395.0,399.0,382.0,362.0,341.75,318.75,310.0,310.0,318.5,316.75,304.75,289.0,271.75,264.0,259.5,250.25,239.25,245.5,248.5,244.25,240.25,238.75,237.5,234.0,233.0,238.0,243.0,244.75,246.5,248.0,253.75,260.75,261.75,262.5,263.25,268.75,271.5,280.0,293.0,296.5
100.5,99.5,102.5,102.0,101.0,100.25,101.75,102.75,105.0,106.0,106.0,107.75,110.25,111.0,110.75,112.5,115.75,120.25,122.5,119.0,119.0,121.5,126.75,130.0,127.25,123.25,122.75,124.5,124.5,124.25,123.0,122.75,124.75,126.5,128.0,127.5,126.0,128.5,130.5,131.75,131.25,132.0,137.5,139.5,144.25,152.75,150.5,153.25,158.0,162.25,165.5,161.5,162.0,168.0,174.75,186.5,195.5,196.0,198.0,196.75,198.5,192.75,191.25,195.0,202.25,210.25,213.0,204.25,194.5,185.75,179.0,173.5,172.25,172.0,168.0,165.25,162.5,158.5,158.5,158.75,158.25,156.25,157.0,155.5,153.75,154.75,156.0,156.25,157.0,158.0,158.0,159.0,161.75,161.5,160.75,161.5,162.25,160.5,162.0,162.5,160.5,160.25,163.75,165.5,167.25,169.75,171.5,177.25,180.5,181.75,186.5,190.0,193.75,197.5,197.25,192.75,189.5,188.25,187.0,187.75,189.75,191.5,193.5,194.0,195.5,199.5,205.0,201.5,203.0,203.0,208.25,213.25,220.75,227.5,229.75,228.25,227.0,233.5,241.0,246.25,245.75,238.75,236.75,240.0,244.75,257.75,266.0,271.0,270.5,273.25,281.5,298.0,307.75,313.5,322.25,319.75,314.5,325.0,346.5,369.0,396.0,408.25,385.5,361.5,346.0,331.5,333.25,333.25,328.5,319.25,303.0,285.75,269.25,263.0,256.0,248.75,243.5,244.0,244.5,240.0,236.0,234.5,233.25,232.5,233.75,238.25,243.25,244.0,247.0,247.0,245.5,251.25,254.25,253.5,257.5,260.5,263.75,277.0,286.0,286.75
98.0,99.0,101.5,101.1898258,101.0,100.5,100.5,102.5,105.0211683,107.0,109.0,112.0,113.5,113.1354552,113.0,115.5,121.5,128.0,129.0943932,125.5,121.5,125.5,135.5,139.8413058,138.5,128.0,125.0,129.0,130.5990974,130.0,127.0,124.0,125.5,126.9354902,128.5,128.5,128.0,127.5,128.0281,130.0,131.5,129.0,134.0,137.1492576,141.0,147.0,147.0,154.5,159.0203525,161.5,160.5,159.0,163.0,170.2324455,178.0,188.0,193.5,189.5,186.9999788,186.5,186.5,185.0,190.5,196.0906046,201.5,210.0,213.5,202.5,193.4220332,185.0,184.0,181.5,176.5,174.491529,171.0,167.5,162.5,159.5,159.0049465,159.5,160.0,158.5,158.0,156.9527296,154.5,155.5,156.0,156.0,156.9354902,158.0,158.0,160.0,162.0,162.0047095,162.0,162.5,163.5,160.5,161.7558531,163.0,163.0,162.5,165.0,166.1453829,168.0,170.0,171.5,175.0,176.4868638,177.5,183.0,186.0,189.5,191.9428081,189.5,185.5,186.5,188.0,187.1687036,188.0,191.0,194.0,198.5,198.4102362,198.0,202.0,205.0,202.5,202.8148837,203.0,208.5,216.0,226.5,233.1987862,237.0,234.0,229.0,232.0,237.7843802,244.5,249.5,248.0,242.0,242.3028772,242.5,248.5,255.0,263.5,265.2538333,269.0,277.0,295.0,306.5,315.1269252,325.5,332.5,325.0,323.5,339.0916881,359.5,388.0,408.5,392.0,373.3294655,361.5,350.0,347.5,337.0,323.5549574,311.5,294.5,277.0,264.0,261.5968659,256.5,248.0,245.0,239.0,237.8305002,235.5,234.5,234.0,233.5,236.1086404,241.5,240.5,244.0,245.0,248.2044943,248.5,245.5,249.0,254.0,255.7809005,256.0,258.0,264.0,275.0,281.0253186,280.5
98.0,98.5,100.5,100.0,100.25,102.0,103.5,104.75,106.5,108.75,113.25,119.0,120.75,116.5,115.5,116.75,123.75,132.25,136.0,133.0,123.5,125.75,137.5,145.5,144.25,132.25,128.25,133.5,138.0,139.5,133.5,127.25,126.25,127.0,128.0,129.0,129.25,128.5,127.0,127.75,131.0,130.0,133.0,135.5,138.75,142.25,142.75,151.5,158.5,159.0,157.25,160.75,167.75,174.0,179.75,189.5,189.25,179.5,177.0,174.5,175.5,179.5,191.75,200.0,204.75,211.75,212.75,204.0,195.5,190.25,190.25,187.75,182.5,178.5,173.25,169.5,163.0,160.25,160.5,161.5,162.5,161.25,160.5,159.0,156.25,157.0,157.25,156.5,157.5,158.25,158.5,159.75,161.5,162.5,163.25,163.75,163.5,162.5,162.0,162.75,164.0,163.0,165.75,167.0,167.75,168.5,170.0,173.75,175.5,176.25,180.5,183.5,184.75,187.0,183.5,181.5,185.0,187.25,186.5,190.0,195.75,202.25,207.0,204.5,201.5,203.75,204.75,204.0,204.5,205.75,209.0,214.25,225.0,232.0,236.0,238.75,236.0,232.5,236.0,242.25,251.5,258.0,249.75,245.5,245.5,248.75,252.25,260.25,262.5,264.5,269.5,284.5,297.5,308.0,319.5,336.25,338.5,334.25,339.0,354.0,383.75,408.25,398.5,383.0,370.75,359.25,350.25,331.5,314.5,302.5,283.5,266.0,260.0,263.0,260.75,253.75,247.75,239.75,237.5,234.5,235.25,234.75,234.75,243.0,247.25,247.5,247.0,250.5,250.5,250.75,251.0,249.25,257.5,264.0,265.75,263.75,272.25,280.25,283.5,284.75
99.5,99.5,100.5,101.0,101.5,103.75,108.5,110.75,111.5,112.5,118.75,126.75,127.5,125.5,122.0,118.75,127.5,137.75,143.0,139.5,129.0,125.25,130.5,141.0,144.0,142.25,137.25,137.5,145.0,150.75,142.75,131.25,127.75,128.5,130.75,131.25,130.5,130.25,129.5,128.25,128.75,129.5,133.25,133.0,135.5,137.25,140.0,148.75,154.0,153.0,153.0,161.0,169.25,174.0,180.0,184.75,180.5,170.5,168.0,169.0,173.75,182.5,199.25,207.0,209.0,210.0,208.0,206.75,203.5,198.75,195.5,190.25,183.5,179.5,174.0,168.0,163.25,162.0,162.5,164.0,165.75,165.5,164.5,163.0,162.0,160.25,158.5,158.5,158.5,159.25,159.5,160.75,162.0,164.0,164.0,164.0,163.25,163.25,163.5,163.0,164.0,163.75,165.5,166.0,167.0,168.25,170.0,174.0,176.0,176.25,178.0,181.5,180.0,182.5,183.5,181.75,184.25,188.75,194.5,198.25,208.75,214.25,215.5,212.5,207.25,206.25,208.5,208.25,207.5,208.0,208.0,210.75,218.5,223.5,231.75,239.5,241.5,241.25,246.0,249.75,258.25,266.0,259.25,252.0,249.25,254.5,261.75,267.25,271.0,269.5,269.0,275.5,284.5,290.5,305.5,326.0,342.75,353.0,353.5,365.75,390.5,409.5,403.5,387.5,374.75,356.25,337.25,323.5,311.0,295.25,275.0,261.75,263.5,270.5,269.25,261.75,252.25,243.25,240.0,237.5,237.75,237.75,237.5,243.5,244.25,252.25,257.25,262.0,260.0,255.0,254.75,256.75,260.25,267.0,275.0,277.5,283.5,286.5,293.5,297.5
100.0,101.0,101.5,102.5,103.5,106.5,113.5,117.5,118.5,115.5,118.0,126.0,130.5,133.0,131.0,125.0,129.75,139.25,144.0,147.25,140.0,131.5,130.0,138.5,146.0,153.75,151.75,142.25,143.5,153.0,149.25,136.25,130.5,134.0,140.5,137.25,134.25,133.25,132.0,130.0,129.25,130.25,132.25,133.0,134.75,136.75,138.75,143.0,145.5,145.5,148.25,154.75,163.5,166.0,173.0,173.25,169.75,163.5,163.0,172.25,183.5,194.0,203.0,205.0,198.25,194.0,196.25,203.0,205.5,200.5,193.25,187.0,179.0,175.0,172.0,167.5,165.0,163.5,166.0,167.0,168.0,169.75,169.75,166.5,165.5,163.0,160.5,160.5,160.0,159.75,160.75,161.0,162.5,164.0,164.0,164.0,164.25,163.0,164.0,163.75,163.25,165.25,165.25,165.0,166.5,168.5,170.5,173.75,177.5,177.0,178.75,180.25,179.5,181.0,183.5,187.0,190.75,195.5,200.0,205.75,212.25,210.75,210.25,207.5,204.0,210.25,216.25,215.25,212.5,211.25,213.25,210.75,215.5,219.0,225.0,231.5,239.75,248.25,256.0,261.0,264.5,272.25,271.0,265.0,254.25,258.0,269.0,277.75,283.5,283.5,278.5,276.75,281.5,284.5,292.25,309.25,328.25,349.25,361.0,374.5,396.5,411.25,400.25,379.5,362.25,340.75,319.25,312.5,300.5,286.25,270.5,268.25,272.25,279.5,279.75,273.5,265.25,251.0,243.5,240.25,239.5,240.75,241.5,239.5,239.0,246.75,260.25,262.75,260.0,257.75,256.0,257.75,262.5,269.5,275.5,279.0,286.75,287.25,289.0,294.5
100.0,100.75,101.0,104.5,108.25,111.75,115.5,119.75,125.0,124.25,118.25,119.5,128.25,136.5,140.25,134.0,129.5,136.25,143.5,152.25,152.0,143.25,135.25,137.5,146.75,158.25,162.25,150.0,145.5,153.5,151.75,139.5,133.75,139.0,147.25,145.75,139.0,135.25,134.5,135.0,133.5,134.0,134.0,134.0,134.75,135.75,137.25,139.25,139.5,141.25,144.75,148.75,152.0,156.0,163.25,162.0,160.0,160.5,163.5,172.25,183.0,192.5,195.75,193.5,184.0,180.5,189.0,197.75,199.5,194.5,187.25,180.5,175.75,172.0,170.0,168.0,166.5,166.25,167.0,167.5,170.25,172.5,175.5,175.5,173.5,168.25,162.25,161.0,161.0,160.75,161.0,161.75,162.75,163.5,163.5,164.75,163.5,160.0,162.0,164.25,163.25,163.25,163.75,165.0,167.0,169.5,170.25,172.25,177.5,178.0,178.25,178.5,181.25,182.0,184.0,189.75,192.0,194.75,199.0,203.25,206.75,203.5,201.25,201.5,201.5,211.75,221.25,222.0,220.5,218.0,223.25,218.0,215.25,215.0,221.0,228.75,239.25,246.5,250.5,256.5,265.0,276.5,281.5,278.0,265.0,260.0,269.75,278.75,286.5,292.0,286.75,282.75,292.5,295.5,295.25,300.0,313.0,330.75,348.0,360.75,382.0,405.0,397.5,378.0,355.75,331.0,315.0,303.0,290.5,276.0,274.25,281.0,280.0,284.5,292.5,291.25,278.25,263.0,247.0,242.25,240.75,242.5,244.0,240.5,239.0,240.5,255.5,261.25,256.0,253.75,259.25,257.75,260.75,264.5,267.75,272.75,278.25,278.75,278.0,283.25
100.5,102.0,100.5,105.7045082,114.5,118.0,117.5,121.0,127.639822,130.5,124.5,122.5,127.0,132.601376,140.0,140.5,131.5,133.5,141.3827771,153.5,157.0,152.0,142.0,140.8174403,146.0,156.0,164.5,157.5,153.233941,156.0,153.0,140.0,137.5,142.8282784,149.5,151.0,142.0,136.5,136.5246433,138.0,137.5,137.0,137.5,136.5572964,136.0,136.5,138.0,139.0,139.2051025,140.0,143.0,147.0,147.0,151.0081746,154.0,151.5,155.0,160.5,164.8264715,171.5,180.5,187.5,187.0,183.1510081,178.0,182.0,193.5,201.0,200.2666626,194.0,186.5,180.0,175.5,172.3452357,169.5,167.0,167.5,168.0,167.7901733,168.5,171.5,174.5,179.5,183.2879502,183.5,174.0,165.5,161.5,161.0445697,161.0,161.5,162.0,163.5,163.9466039,164.0,165.0,162.5,161.0,163.6442145,164.5,162.5,162.0,163.5,164.7605773,167.0,169.5,169.5,171.5,175.4908235,177.5,178.0,178.0,179.5,180.7891823,182.5,186.0,188.0,191.5,195.1973314,197.5,200.5,198.5,199.0,200.1054567,202.0,210.5,221.0,225.0,225.6377633,225.0,233.0,231.0,221.0,218.1391858,221.0,230.0,236.5,240.5,245.4795567,254.0,267.0,278.5,285.0,283.7128132,272.5,264.0,270.5,279.5,289.5817164,296.0,295.5,287.5,301.5,309.4889863,310.5,306.5,306.5,319.5,333.1362436,348.0,373.0,395.5,395.5,381.4430493,362.5,336.5,314.0,297.0,285.5143645,275.5,279.0,291.5,287.0,293.0030325,304.0,305.0,286.5,272.5,258.2585267,246.5,241.0,242.0,243.5,240.9333978,240.5,241.0,250.5,261.0,255.5894394,248.5,260.0,258.5,256.0,259.4564372,261.0,264.0,268.0,270.5,270.6852737,275.5
102.75,104.25,102.25,106.0,113.25,119.5,123.5,127.25,132.5,137.75,135.5,131.25,130.75,133.0,139.5,144.25,136.25,135.25,137.5,148.75,156.5,159.5,149.0,144.5,145.75,152.25,165.25,162.75,160.0,161.75,154.0,141.75,142.75,146.0,150.75,153.75,144.25,137.5,139.0,143.5,147.75,142.75,139.0,138.5,137.5,137.75,139.75,140.5,139.5,139.75,142.0,144.75,145.5,148.5,149.5,149.5,153.25,159.25,163.5,170.0,179.25,182.5,178.0,175.5,175.75,186.75,199.0,205.25,205.0,199.0,192.5,184.5,177.5,172.0,167.5,165.5,169.0,169.25,168.5,169.25,172.25,175.75,182.25,189.0,190.0,182.25,174.25,164.0,161.5,162.0,162.0,162.75,163.25,164.0,164.0,165.0,162.75,165.25,166.5,165.75,163.75,163.25,163.25,163.5,166.5,170.25,170.75,170.75,171.5,174.25,176.5,178.0,178.25,178.5,179.5,182.0,186.0,189.25,191.5,192.75,196.25,197.25,198.25,199.5,201.5,208.75,218.75,223.25,227.5,233.75,241.75,243.0,233.0,222.5,223.0,228.0,231.75,238.75,245.5,254.25,265.25,272.25,282.0,289.0,280.25,267.75,273.25,283.25,292.0,299.25,305.5,296.25,310.5,326.0,330.75,326.25,314.5,314.25,323.5,333.75,362.25,382.75,390.0,384.0,368.75,344.25,320.25,300.5,286.5,281.0,286.5,305.0,300.5,308.0,316.0,313.0,296.75,280.5,266.5,251.75,240.25,243.25,244.75,240.0,240.75,240.75,248.25,260.5,260.5,252.25,255.0,258.0,254.75,256.5,258.5,259.25,260.75,263.75,264.5,270.25
106.0,108.25,106.0,105.5,108.75,116.5,123.75,131.75,135.5,141.5,144.25,139.5,138.75,142.0,147.5,154.0,149.0,145.75,141.5,143.5,149.0,161.75,158.25,153.5,147.5,149.25,162.75,169.0,171.5,169.75,153.5,146.25,149.0,154.0,156.25,154.75,145.0,139.25,143.0,150.25,158.75,155.25,144.0,139.5,139.75,141.5,142.25,141.5,141.5,142.5,144.0,144.25,145.5,146.0,146.75,148.5,152.0,155.0,157.0,163.0,171.0,170.75,167.75,167.5,173.75,184.75,192.5,199.0,201.5,201.5,194.5,188.0,177.0,169.5,168.5,170.0,173.75,173.0,172.5,171.0,173.0,176.75,184.0,189.5,193.75,193.5,187.25,171.25,163.5,163.5,163.5,163.25,164.0,164.5,164.75,164.75,164.75,167.5,167.0,166.0,166.0,164.25,164.0,163.5,165.5,168.0,171.5,172.5,170.5,174.75,178.0,177.0,177.25,178.0,179.0,180.5,183.5,185.75,187.5,189.75,192.5,195.5,198.5,198.5,201.75,206.25,214.5,218.5,224.5,236.0,250.0,253.5,242.0,230.0,225.25,226.25,228.5,236.25,241.0,249.25,260.25,266.75,281.75,293.5,290.25,275.75,275.0,281.5,289.0,300.0,313.75,313.75,320.25,337.5,351.0,346.75,333.0,327.0,323.0,326.5,350.75,365.25,375.75,381.0,372.75,356.5,331.5,306.5,291.5,289.25,298.0,318.25,319.25,323.0,323.25,314.75,303.5,287.75,270.5,257.5,243.25,244.25,247.5,240.5,240.25,241.5,246.5,261.5,259.5,254.75,247.25,253.25,258.5,256.5,256.0,260.0,264.25,265.75,264.5,269.5
111.75,116.0,115.25,113.0,112.0,113.75,118.75,124.25,129.5,135.75,140.5,140.25,138.75,143.0,153.25,160.5,163.0,158.75,154.0,149.25,148.0,155.75,165.0,163.5,156.25,149.75,159.5,168.5,176.0,171.75,156.0,150.75,154.0,163.5,165.0,157.75,146.0,146.0,150.0,153.75,160.0,161.75,153.25,144.0,142.5,145.5,145.0,144.5,146.5,148.25,146.5,145.5,145.25,146.0,147.0,148.0,149.5,151.5,153.5,156.0,158.75,159.25,160.75,163.5,168.5,176.0,180.25,185.0,188.0,191.25,186.75,180.25,173.25,172.0,174.0,175.0,177.5,178.5,178.5,175.0,174.25,177.0,183.0,188.0,195.5,200.25,195.75,176.0,166.5,165.75,164.5,163.0,164.5,166.0,165.75,164.0,162.75,167.0,167.5,167.25,165.75,164.0,164.5,166.5,166.25,168.25,174.0,172.75,173.5,179.0,183.75,181.25,178.25,178.5,179.75,180.5,182.5,183.25,185.5,189.5,195.25,197.75,202.25,203.0,205.0,207.25,214.75,221.0,226.0,237.5,254.5,256.75,244.5,232.5,227.0,229.25,233.0,235.75,242.5,254.5,267.5,278.25,290.0,300.5,298.5,284.75,275.25,280.5,291.5,304.5,318.75,325.25,337.5,351.5,365.5,362.0,351.5,347.75,335.5,333.25,351.25,362.75,370.0,376.5,380.25,367.25,341.25,312.25,301.0,301.0,314.75,333.0,335.75,332.5,323.5,309.5,294.0,278.5,264.5,256.5,248.25,248.25,251.0,244.0,241.75,245.75,248.5,253.5,257.0,254.0,246.0,247.75,261.25,261.5,257.5,263.0,272.25,278.25,278.5,280.0
117.0,123.5,125.0,124.0,123.0,120.25,119.0,119.0,120.0,125.0,131.5,134.5,135.75,141.5,150.5,155.25,164.25,166.5,165.0,163.75,159.0,159.25,171.25,174.0,165.75,158.5,164.5,172.5,175.0,169.25,156.75,152.75,157.0,168.5,171.25,159.75,147.5,149.25,156.5,161.25,163.25,167.5,163.25,153.5,147.25,147.5,149.25,154.75,160.0,159.5,156.0,151.75,146.0,146.5,148.0,148.25,151.0,151.0,152.0,154.5,156.5,156.5,158.75,159.0,161.75,164.75,167.75,171.5,173.5,174.0,176.5,178.0,179.75,181.0,179.5,179.0,183.0,184.75,183.0,178.75,175.75,177.5,182.0,186.0,193.5,201.0,199.0,183.25,173.5,169.25,166.25,164.5,164.0,165.5,164.5,164.25,165.5,167.75,168.0,168.25,167.75,165.0,165.25,167.0,167.75,170.5,174.75,174.75,177.0,181.0,187.25,188.5,185.5,184.0,183.0,182.25,184.0,184.75,187.0,189.5,194.0,197.5,202.5,205.0,208.5,210.75,217.75,224.0,227.0,239.75,258.25,256.5,244.75,235.0,230.0,230.75,238.75,242.75,250.5,258.75,266.5,276.75,284.5,294.5,299.0,291.5,280.25,282.25,293.0,302.25,312.25,325.5,349.5,371.5,385.25,384.25,376.0,363.75,348.0,348.25,368.75,381.5,387.5,387.5,388.75,369.25,346.25,321.5,309.0,312.25,331.25,345.0,343.0,333.0,314.5,295.0,281.0,267.5,260.0,255.75,252.0,249.5,254.5,254.5,249.5,247.75,253.25,249.5,259.0,256.25,247.5,248.0,254.0,260.0,259.75,264.75,273.5,285.0,288.0,291.0
117.0,124.5,130.0,131.5289061,132.5,126.5,124.0,121.0,120.3894613,120.5,126.0,128.0,134.5,141.4218265,145.5,147.5,155.5,161.5,163.997776,168.0,168.0,166.5,174.0,179.1583443,173.5,164.5,174.0,178.5,173.6567732,166.5,157.0,155.5,162.0,170.1450993,173.0,162.0,150.5,150.5,157.6622405,165.0,170.0,175.5,169.5,159.3462239,150.0,148.0,154.0,161.0,166.3463489,167.5,165.0,157.5,148.0,147.9231797,149.0,151.0,155.0,153.0,155.7641174,158.0,156.5,156.5,157.0,157.9430538,159.5,161.0,161.5,164.0,167.0049614,169.5,178.5,185.0,186.5,185.7616344,184.0,182.5,189.0,188.5,186.0634744,180.5,177.0,178.0,182.0,185.8168156,191.5,198.5,200.5,193.0,185.640188,177.0,168.0,166.0,165.0,165.2867591,165.5,165.0,167.5,168.0,167.9936912,168.0,168.5,165.5,166.5,167.4465369,168.5,171.0,173.5,174.5,177.1815396,182.0,186.5,191.0,191.5,189.5502232,190.0,184.0,184.5,186.5,187.9876315,190.0,194.0,197.0,200.5,203.991587,208.5,213.0,219.5,223.0,226.9939693,240.5,261.0,261.0,248.5,238.0774569,231.5,230.5,236.5,242.5,247.1939789,251.5,256.0,265.0,275.5,284.6844931,293.5,297.5,291.0,281.0,286.5280664,292.5,304.5,325.5,354.0,374.8341575,394.0,400.0,391.5,371.5,356.5248675,356.0,378.0,396.0,403.5,399.6558948,391.0,370.5,348.5,330.0,318.854848,324.5,344.0,355.0,344.0,331.9984937,312.0,288.5,277.5,267.5,265.1939638,261.0,259.0,255.0,257.5,257.8744323,256.5,249.0,251.0,248.0,255.7957354,259.5,249.0,248.5,248.0,253.5479988,255.5,261.5,272.0,282.5,284.9555553,289.5
113.0,120.75,129.75,135.0,136.5,132.0,130.5,128.0,126.5,126.5,126.75,128.5,133.5,138.5,140.0,142.0,147.5,153.0,157.5,164.75,172.25,174.5,176.25,182.5,178.75,170.75,180.0,180.5,173.0,168.0,161.25,159.0,166.5,174.0,175.5,164.0,152.25,151.5,157.0,162.75,173.0,182.25,176.5,163.0,154.5,149.75,155.25,163.0,171.0,174.75,172.25,162.25,153.0,150.5,153.0,158.5,163.25,159.75,161.0,162.0,158.75,156.0,157.75,158.5,160.5,161.25,162.0,163.0,166.5,172.75,182.75,190.25,191.0,189.5,186.5,185.25,191.25,193.5,189.5,182.75,179.75,179.75,181.25,184.5,188.5,196.5,201.75,200.5,195.0,184.5,169.75,167.25,165.75,165.5,166.25,166.0,167.25,166.75,167.5,168.25,167.75,166.0,166.75,169.5,170.5,170.75,173.0,175.0,177.0,179.75,183.5,187.75,190.5,190.5,189.75,185.5,184.25,187.0,188.0,189.25,195.25,198.0,200.0,203.0,205.75,210.25,216.75,220.25,227.0,244.25,261.5,264.5,251.5,239.0,232.5,232.0,236.75,240.75,242.5,246.75,253.25,260.75,272.25,279.0,287.75,298.5,299.75,286.5,285.5,290.0,302.0,326.0,354.75,373.5,394.5,409.5,403.5,379.25,361.5,358.5,373.5,397.75,412.0,408.5,397.0,378.75,355.75,333.25,320.5,334.5,356.5,362.75,347.25,331.5,309.5,292.75,287.0,280.75,278.0,274.0,268.25,263.25,262.5,259.5,260.0,252.0,247.75,247.25,253.5,259.0,252.25,247.25,247.25,252.5,257.5,259.0,268.25,275.75,278.5,282.0
112.5,117.75,124.25,130.5,137.25,139.25,140.0,136.0,133.5,135.0,135.25,133.0,131.25,133.5,136.0,138.5,145.0,153.25,157.5,163.75,176.0,181.5,184.5,189.0,188.0,180.0,181.75,184.0,181.5,178.75,173.5,164.5,168.0,177.5,178.5,165.5,154.0,157.25,163.5,166.5,173.5,183.25,184.75,175.5,164.75,152.0,155.0,165.0,175.0,181.5,180.75,169.75,159.5,154.5,156.25,164.5,170.5,166.0,167.0,171.0,163.75,159.25,161.5,161.5,162.5,163.25,164.25,164.25,166.0,172.0,179.5,186.75,192.0,193.5,190.5,190.0,197.75,197.25,191.0,183.0,183.0,184.5,183.0,184.5,189.5,197.5,201.5,197.25,192.5,184.0,169.75,168.25,166.25,166.5,167.0,166.0,167.0,166.75,167.0,168.75,170.25,168.75,167.25,169.5,170.75,172.25,173.75,175.5,175.0,177.0,181.5,184.25,186.0,188.0,188.5,191.5,191.5,190.5,189.5,189.5,194.5,198.5,200.75,202.0,204.25,206.25,215.0,224.25,235.0,251.0,264.5,262.75,249.75,237.5,233.25,236.5,243.25,243.75,244.5,249.0,257.0,261.25,268.25,272.5,281.75,303.75,307.0,294.25,296.0,297.5,301.75,319.75,344.25,364.5,383.5,401.25,406.75,391.5,377.0,369.0,370.25,387.25,412.0,420.0,412.25,391.75,363.75,340.5,329.0,346.75,367.5,367.0,345.5,326.0,312.0,308.75,305.25,303.5,299.0,291.0,284.75,275.75,272.5,266.5,260.0,252.5,247.25,247.0,249.0,252.0,255.0,247.25,247.75,252.5,256.75,259.0,261.75,267.25,269.5,272.75
111.5,118.25,124.25,131.0,137.75,141.75,143.25,146.0,144.0,145.0,145.5,144.25,141.0,144.0,146.0,145.0,151.75,161.5,168.5,174.25,182.25,191.25,196.25,199.5,198.25,188.75,187.75,195.0,198.0,192.0,182.0,168.25,171.5,183.0,182.75,169.25,157.0,160.25,168.0,173.75,179.25,185.5,191.0,187.0,174.25,156.5,158.0,166.25,175.0,181.75,185.25,179.25,167.75,158.0,157.5,166.0,174.0,169.75,169.0,176.5,172.75,163.5,166.5,167.5,167.25,168.75,167.0,168.0,170.0,171.25,174.0,178.0,185.75,189.5,190.0,193.25,200.5,198.75,192.0,190.5,190.75,188.25,186.0,188.0,192.75,201.5,199.25,190.5,185.0,178.75,169.75,169.5,168.5,167.5,167.0,167.25,168.0,169.0,168.5,168.75,170.75,171.0,170.0,169.0,169.5,173.0,174.5,176.0,177.0,177.5,181.75,184.75,187.5,188.0,190.0,195.25,197.5,195.0,191.5,190.75,192.75,197.25,199.25,201.0,203.0,207.75,218.0,231.25,241.0,256.75,265.0,258.75,247.0,238.5,234.0,239.75,251.0,251.0,249.0,252.25,257.5,265.5,274.75,281.0,290.75,312.25,313.25,304.0,308.5,311.25,306.75,314.75,331.75,351.0,362.75,378.0,395.75,405.5,398.0,394.75,386.25,385.75,403.25,423.0,422.25,398.75,371.75,352.75,345.0,358.25,373.0,362.0,343.25,335.0,331.25,329.5,326.0,322.75,317.5,310.75,304.75,292.75,285.25,272.5,261.75,254.25,248.75,247.75,248.5,247.0,250.25,248.5,247.25,249.0,252.25,257.5,258.25,261.25,260.5,265.0
108.5,117.0,124.25,130.5,134.5,133.75,138.75,148.25,152.5,155.5,159.0,158.5,155.25,156.0,158.5,156.25,158.5,165.25,176.0,183.75,189.0,194.5,197.5,200.5,200.75,196.75,199.25,205.5,210.0,204.5,188.25,172.75,176.25,185.0,187.75,175.0,160.75,160.0,166.0,173.0,181.5,192.5,194.25,188.5,179.75,163.25,160.5,162.5,166.5,174.75,187.0,186.5,175.0,163.0,160.75,170.75,179.25,176.0,170.5,178.5,179.75,167.25,169.75,172.5,172.25,172.5,169.25,172.5,175.0,173.0,174.25,174.5,179.0,184.0,187.0,193.0,201.25,203.0,202.0,203.75,202.75,195.25,188.75,192.5,197.25,204.0,200.25,189.75,182.0,176.5,171.75,169.75,169.25,168.5,167.5,168.0,167.75,169.25,171.0,170.75,170.0,170.75,170.5,169.5,170.25,172.75,176.75,176.75,176.0,177.25,181.0,185.75,188.0,187.0,189.0,193.25,196.0,199.75,198.0,194.25,194.0,200.75,200.0,201.5,202.25,208.25,218.0,227.75,239.0,250.25,254.25,256.0,250.25,243.5,238.5,240.0,255.25,261.25,263.5,261.75,258.25,268.0,282.5,291.5,301.75,319.25,322.25,318.75,322.0,324.25,321.25,321.75,327.25,336.0,350.0,368.25,394.5,417.5,419.5,419.75,412.5,401.0,411.0,426.5,424.25,398.25,375.0,358.75,362.0,373.5,381.0,368.75,356.25,354.5,351.25,347.5,339.25,333.75,326.5,316.75,309.5,298.75,288.25,277.5,266.5,255.0,249.5,247.75,249.5,250.25,251.25,253.0,250.75,252.5,254.75,260.0,260.25,263.5,259.0,261.5
108.0,115.0,122.0,125.5060903,127.5,128.0,137.0,147.0,150.4194391,155.5,158.5,161.5,156.5,155.6019303,158.5,160.5,165.5,171.0,175.4434681,181.0,184.0,186.0,187.0,191.5161109,196.5,201.0,207.0,212.5,212.1639305,205.5,187.5,175.5,184.0,189.4950866,191.5,179.5,163.0,161.5,167.7397534,175.5,182.0,194.0,194.0,188.0138461,180.0,166.0,161.5,161.0,164.062865,171.5,187.0,187.0,178.0,170.1239213,164.5,171.0,180.5,182.0,177.9971775,181.5,182.0,171.0,172.0,175.3901844,175.5,176.0,173.0,176.0,178.3061518,177.5,176.5,174.5,175.0,180.3657447,185.0,192.5,200.0,205.5,207.7700237,211.0,206.5,201.0,194.5,197.1977727,203.0,206.0,201.0,190.0,182.1659568,177.0,173.5,171.0,170.5,169.1839195,168.0,168.0,168.5,168.5,171.6746896,172.5,172.0,172.0,171.5,171.2298936,172.0,173.0,177.0,178.5,177.2657324,177.5,180.5,184.5,185.0,185.8181511,187.5,194.0,199.0,205.0,203.5566853,199.0,197.5,202.0,200.0,200.3002289,201.5,207.5,216.0,225.0,235.6890589,244.5,244.0,252.5,253.0,247.2924862,241.5,241.5,252.0,264.5,270.1335993,271.0,265.5,270.0,284.0,294.7618329,305.0,319.5,321.0,321.5,326.2869767,332.5,335.0,336.0,336.0,340.6147229,350.0,369.5,399.5,427.5,434.4972292,435.0,430.5,416.5,423.0,433.0300767,422.5,395.5,378.5,370.0,376.8466893,387.0,389.0,375.5,369.5,362.2976301,358.5,352.5,340.0,328.5,322.4395083,315.0,306.0,294.0,283.5,275.566332,265.5,254.0,249.0,247.5,249.855926,252.0,257.0,257.0,253.5,254.8394525,257.0,260.5,263.0,267.5,265.3666456,265.5
108.25,112.25,117.5,120.0,122.75,127.25,135.25,141.25,145.0,146.25,147.75,152.25,149.25,149.5,153.25,159.75,167.25,170.0,171.5,173.0,174.0,176.75,180.75,184.5,191.5,203.5,211.5,220.5,213.0,203.5,186.25,178.25,189.5,196.0,192.5,179.5,164.5,161.75,168.5,177.5,186.0,193.5,193.25,186.0,176.25,166.25,162.5,162.5,164.0,170.25,182.5,186.0,182.25,175.0,167.75,170.0,179.0,185.0,187.0,189.5,187.25,176.5,173.0,178.0,177.25,177.25,176.75,178.75,184.0,183.25,181.25,176.5,175.75,179.0,184.25,189.25,195.5,202.25,207.5,213.0,210.5,207.0,201.75,204.0,209.75,208.25,200.0,188.25,180.5,178.75,176.0,176.0,174.5,170.5,169.0,169.5,171.0,170.5,173.0,173.0,171.5,172.75,173.5,172.5,172.0,173.0,175.75,178.25,178.0,178.0,178.75,182.25,185.0,188.0,188.0,195.5,203.5,210.0,208.5,206.5,203.25,199.25,199.25,200.5,201.25,205.0,214.25,225.25,233.0,236.25,236.5,244.75,251.75,250.5,244.5,242.0,249.0,263.0,271.0,274.75,277.25,280.75,289.5,296.5,302.75,311.25,312.5,316.75,326.5,334.75,345.25,351.0,353.0,351.5,361.25,374.25,400.0,429.75,445.5,449.25,445.25,430.75,436.75,442.0,424.75,402.0,390.25,386.5,392.5,397.75,394.25,374.75,361.75,355.0,353.75,348.75,332.75,316.75,315.0,307.75,296.5,285.5,277.25,271.0,263.75,254.0,250.75,249.0,252.0,255.5,260.5,258.0,253.75,254.0,257.0,262.5,266.25,272.75,272.0,271.25
113.5,112.5,115.25,115.0,117.5,122.75,126.25,128.25,130.5,131.75,135.75,139.25,138.5,141.5,147.5,155.25,160.0,159.5,159.0,161.75,165.5,170.5,177.25,185.0,196.75,209.0,218.5,225.75,217.5,207.5,195.0,188.5,198.25,200.5,191.25,178.25,168.0,163.25,166.5,173.5,185.25,193.75,193.25,185.5,177.25,170.75,166.0,166.5,165.5,167.25,175.25,184.0,190.25,183.0,173.25,168.0,175.75,188.0,199.5,201.25,193.75,180.0,176.75,182.0,182.25,181.5,180.0,180.75,189.5,194.0,193.0,184.5,184.5,187.0,186.5,185.25,185.25,190.5,195.5,204.5,211.25,215.75,211.0,214.5,214.25,207.25,196.25,185.5,179.0,178.25,178.0,180.0,179.75,176.5,176.5,174.75,175.5,174.0,173.0,172.5,171.0,173.0,173.75,173.0,171.5,173.5,175.75,176.5,177.0,177.75,179.5,181.25,187.0,190.5,191.5,196.5,209.75,216.75,219.0,217.25,208.5,200.5,201.25,203.0,203.25,204.75,210.0,220.75,227.0,227.25,230.25,240.0,250.5,253.5,249.0,246.5,248.25,256.0,261.0,270.25,280.0,284.5,289.5,289.0,288.5,294.5,297.75,309.5,318.0,327.75,349.0,370.25,373.25,368.5,376.75,390.5,413.5,441.75,463.0,471.25,464.75,451.75,453.75,451.5,437.5,422.75,409.5,402.0,401.0,398.0,386.25,369.0,349.25,340.0,336.0,333.75,322.5,307.0,297.5,292.0,283.25,275.75,272.75,269.0,261.75,256.5,256.0,254.0,255.5,256.5,258.0,256.75,253.5,254.0,255.5,260.75,269.75,278.75,281.0,281.0
120.0,115.5,115.5,114.5,116.0,119.75,120.5,123.25,126.0,128.0,130.0,132.75,135.0,139.0,145.25,151.75,154.0,152.5,155.5,162.75,174.25,180.5,185.0,189.0,199.5,214.75,223.25,231.5,230.0,223.75,205.75,198.5,204.75,201.0,190.5,178.5,173.75,167.5,166.0,169.5,180.0,194.0,196.0,189.5,183.75,179.0,170.25,170.25,170.0,169.5,177.0,186.25,194.25,192.0,184.5,174.75,179.0,191.5,200.5,206.0,200.25,185.25,181.0,186.5,188.25,186.5,185.5,184.25,190.5,199.5,202.25,195.25,192.25,197.5,194.75,187.0,184.0,185.25,189.5,195.75,209.5,219.25,222.25,221.0,217.5,207.0,197.5,186.75,181.0,179.25,181.25,186.25,187.75,184.5,184.5,180.25,176.5,175.25,173.5,171.25,169.5,174.0,175.25,174.0,172.75,174.0,176.25,177.75,178.0,178.25,181.25,184.0,189.0,193.0,197.0,202.25,215.75,223.75,225.0,221.0,211.75,203.25,202.0,204.0,205.75,207.0,210.0,217.5,220.0,223.25,229.5,237.25,251.25,256.0,254.25,254.75,251.5,254.25,255.0,259.75,271.25,276.25,278.5,277.0,276.75,282.5,291.25,303.0,309.5,318.0,347.5,381.25,395.25,392.0,394.5,411.0,434.75,463.5,484.0,496.25,488.75,473.75,470.5,468.0,456.0,438.5,419.25,402.25,391.5,385.0,376.75,363.25,346.0,335.0,323.75,319.0,310.5,296.25,287.0,281.5,275.5,274.0,272.25,270.5,267.75,262.25,258.25,254.5,255.5,253.75,254.75,257.0,255.75,254.0,256.0,257.5,269.25,278.0,286.0,289.5
123.75,119.5,119.25,120.0,120.75,121.75,122.5,127.5,128.5,132.25,131.0,132.75,134.75,138.0,145.0,148.5,150.5,151.0,159.5,169.0,180.25,188.25,194.5,197.0,201.5,210.75,222.25,236.25,241.5,231.0,213.0,208.25,205.75,199.0,191.75,186.25,178.5,173.0,172.5,171.5,179.75,194.0,199.75,200.0,196.75,187.5,176.0,174.75,175.0,172.0,174.75,181.75,190.5,198.5,195.5,185.0,179.5,189.0,197.5,205.75,205.25,192.5,184.25,185.5,192.25,196.5,197.25,192.75,192.5,202.25,211.5,206.0,197.0,200.5,199.75,195.25,191.5,184.25,185.0,189.75,203.25,215.0,222.25,224.5,223.75,219.75,206.0,192.25,186.5,181.75,182.75,191.0,197.25,196.0,195.25,189.75,181.5,180.0,176.5,173.25,170.75,172.5,175.25,175.0,174.75,175.0,178.0,179.75,178.0,177.5,182.25,186.5,191.5,196.5,201.5,208.0,215.75,219.0,217.5,215.25,210.25,205.5,203.75,204.0,206.5,210.75,212.5,216.75,218.0,222.0,227.75,235.0,248.25,257.0,258.25,262.75,260.5,256.5,255.0,258.0,263.75,267.5,273.25,274.5,276.25,280.75,287.25,296.0,305.5,321.5,347.25,379.25,406.5,414.5,418.25,429.0,455.25,484.0,500.0,516.25,514.5,501.25,489.75,480.0,462.5,436.75,414.25,391.25,376.5,367.25,357.75,348.5,339.5,328.0,314.25,304.0,295.5,287.25,282.5,281.0,278.75,279.0,274.5,272.5,273.5,269.75,260.75,253.75,255.0,252.75,255.25,259.25,257.0,255.5,257.5,258.75,264.75,276.0,284.5,292.25
124.5,122.0,123.0,124.3952304,125.0,124.0,124.5,129.5,133.2030365,137.0,137.5,137.0,137.0,139.7419123,143.0,147.0,150.5,152.0,158.4943053,169.0,177.0,187.0,199.0,205.1788508,211.0,210.5,222.5,238.5,242.5906498,233.5,217.5,215.0,204.5,199.4168039,196.5,192.0,181.0,176.5,179.5721796,177.5,178.5,189.0,200.0,205.9964236,206.0,191.0,177.5,176.5,175.1030544,172.5,174.5,179.5,187.5,198.1153342,202.5,191.5,182.0,187.0,193.50391,203.0,208.5,196.5,186.0,188.2645778,196.5,204.0,205.0,198.0,195.0026321,201.0,214.0,213.0,203.0,203.1429922,206.0,205.5,198.5,188.5,187.8494732,190.0,199.0,208.0,216.0,221.9594196,225.5,224.5,209.5,196.0,188.3089983,183.0,182.0,191.0,199.5,203.9278696,205.5,200.0,186.5,185.0,180.9688558,176.5,173.0,173.0,176.5,176.6447757,176.5,176.0,178.0,179.0,177.5136784,177.5,183.0,186.5,193.0,196.1077587,200.0,205.5,208.0,209.0,208.5077703,206.0,205.5,204.0,205.0,204.9679403,205.0,210.5,215.5,218.0,219.7249409,224.0,228.0,235.0,243.5,251.4587868,257.5,267.5,267.0,261.5,260.798323,261.0,263.5,267.0,274.5,277.3697973,280.0,284.5,288.0,293.5,304.5146662,323.0,345.0,372.0,403.5,420.7696056,430.5,440.0,465.0,492.0,505.5972395,522.0,525.5,519.0,498.0,479.9658788,459.0,429.0,401.0,384.0,372.544571,357.5,348.0,336.0,327.0,319.8146913,309.5,297.0,289.0,285.0,285.8908297,287.5,289.5,287.0,277.5,274.7832835,276.0,274.0,265.5,255.5,255.6446803,255.0,256.0,260.0,258.0,257.773168,258.0,258.0,264.0,280.0,283.0066019,287.0
122.5,121.0,125.25,127.5,129.75,130.25,126.75,129.25,135.5,140.75,145.0,146.25,146.25,146.5,145.5,149.0,153.0,155.25,156.0,163.75,171.25,182.0,199.0,209.5,217.5,217.5,224.25,239.0,246.5,239.0,230.0,220.75,209.0,207.5,208.5,200.0,184.25,180.5,190.0,188.5,181.0,183.0,196.75,210.0,208.5,192.25,178.0,176.75,175.0,172.5,177.25,183.75,191.0,202.0,209.25,199.75,186.75,186.25,192.5,204.25,212.0,202.75,189.0,188.5,197.75,207.5,211.75,206.0,199.5,201.75,215.75,218.75,210.5,207.0,212.0,213.0,201.25,193.75,193.5,192.75,197.25,202.25,210.0,216.5,223.0,226.5,213.5,200.0,190.0,185.0,185.5,190.5,199.5,208.5,213.75,209.25,193.0,188.75,186.5,179.5,172.0,173.5,176.0,177.0,177.0,176.25,177.75,178.25,177.0,178.25,181.25,185.25,190.5,193.0,195.75,198.75,201.0,203.0,204.0,202.25,203.0,203.75,205.0,206.5,205.5,211.25,219.25,222.0,223.0,227.5,229.75,236.0,240.75,247.5,251.75,264.0,271.75,268.75,269.0,267.5,266.25,272.0,279.0,281.5,285.0,291.75,294.75,296.75,305.5,317.25,336.75,364.5,399.0,420.5,433.75,447.75,469.0,486.0,497.0,512.75,523.25,522.25,501.0,478.5,458.0,426.5,398.25,378.25,367.0,355.75,345.75,329.75,318.25,313.0,306.75,300.25,295.25,292.0,293.0,299.0,302.5,295.0,281.75,281.0,285.5,281.75,270.25,259.25,256.5,258.0,258.5,260.0,259.25,258.5,258.5,258.0,263.5,276.5,280.0,285.0
119.75,119.25,125.75,130.0,134.25,138.5,133.25,130.0,135.0,142.5,153.5,158.25,160.0,158.5,151.5,152.0,160.25,163.5,159.0,158.25,167.5,181.0,197.0,209.5,223.5,231.75,231.75,240.25,254.5,253.25,246.0,229.0,223.25,221.5,218.75,205.75,188.75,186.0,198.0,203.5,196.0,189.5,196.5,204.0,203.5,190.5,179.75,180.0,178.0,181.75,186.0,188.0,202.5,211.0,214.5,207.75,195.0,187.5,191.5,202.0,214.0,207.5,194.5,190.5,194.25,206.0,217.75,219.5,210.0,204.75,217.0,225.5,222.0,218.0,220.75,218.75,205.5,203.0,204.0,199.75,197.0,199.75,205.25,208.5,215.75,224.0,223.0,210.75,198.0,190.75,193.75,194.75,200.25,210.5,218.75,217.75,203.75,195.75,196.0,186.5,176.75,174.5,175.0,176.0,177.0,176.0,177.5,178.25,179.0,180.0,181.25,185.25,189.25,191.5,191.25,193.0,197.0,201.5,203.0,205.75,209.75,210.25,208.25,209.0,208.25,212.5,219.75,227.0,231.5,233.25,234.5,244.0,248.0,251.5,251.75,261.5,276.25,279.75,282.0,281.25,274.0,279.0,286.25,290.0,290.75,299.5,304.25,306.75,310.5,316.75,330.25,356.75,391.25,411.5,423.25,437.0,452.0,463.25,471.5,485.5,505.25,510.0,489.5,469.0,455.5,430.25,408.25,383.75,366.5,359.25,348.0,331.5,316.25,310.0,308.75,311.0,311.75,306.25,304.5,314.5,319.25,307.0,294.0,294.5,295.25,287.75,272.0,263.0,258.5,258.0,260.5,260.5,259.75,258.5,259.25,260.0,263.75,268.5,273.5,282.25
120.5,122.25,124.0,127.5,134.25,143.0,143.5,136.5,134.5,138.25,148.25,158.25,165.75,166.0,158.5,155.0,161.5,171.0,169.5,165.5,169.25,182.5,197.25,209.0,223.0,235.25,243.75,252.75,260.5,260.75,254.25,245.5,241.25,234.5,222.75,209.75,201.25,195.25,205.5,215.25,213.5,207.25,203.5,199.5,194.5,186.25,184.75,185.5,182.5,187.0,195.25,193.0,203.0,213.0,218.0,214.75,201.25,189.0,192.0,200.75,214.0,212.5,200.5,194.5,193.5,202.25,214.75,223.0,219.5,210.25,214.75,226.75,236.0,236.0,234.25,228.0,215.25,208.75,208.0,202.25,199.0,206.25,204.0,204.5,210.0,220.0,225.75,215.5,204.0,197.25,202.25,205.25,207.25,210.0,220.5,228.25,224.0,212.25,202.5,193.5,181.25,175.5,173.5,176.0,177.75,177.75,177.75,179.0,179.5,180.75,184.25,184.75,189.0,193.5,195.5,193.5,199.0,209.25,212.0,214.75,219.75,219.75,215.75,213.5,213.0,217.0,222.5,234.5,240.5,240.75,240.75,247.5,260.5,265.5,267.25,273.75,284.0,290.75,293.0,291.0,283.0,283.75,293.0,297.5,293.25,297.25,307.0,319.5,326.0,329.5,339.5,361.75,385.75,398.0,402.25,408.25,424.75,438.0,448.0,460.25,487.0,500.0,479.25,453.5,441.75,420.5,405.75,380.5,363.5,355.25,345.25,332.0,322.0,318.5,319.75,330.75,328.25,316.5,316.5,326.5,332.75,321.25,309.25,305.5,298.75,283.75,271.5,264.0,258.5,257.25,261.0,261.25,260.75,261.5,260.25,261.5,265.0,267.5,274.0,281.0
126.5,130.0,129.0,128.0,132.75,142.25,146.75,143.75,139.5,137.5,143.0,153.0,166.25,171.5,166.75,164.0,163.5,171.0,178.0,178.5,174.25,180.0,192.0,204.5,219.75,232.75,245.75,251.0,252.0,252.25,254.5,249.75,242.25,237.0,228.75,222.0,219.0,210.75,213.0,223.75,223.25,215.5,206.75,197.5,189.0,182.25,192.5,193.25,187.0,190.5,203.25,203.0,201.5,206.5,219.75,219.75,204.0,191.25,197.5,205.5,213.75,218.25,212.0,205.0,197.75,202.5,214.25,224.25,228.0,222.0,223.0,229.75,240.0,245.0,245.75,235.5,222.5,220.25,214.0,204.5,204.25,214.25,207.5,204.0,206.75,219.0,225.25,217.5,209.0,207.0,213.25,215.0,217.5,221.0,227.0,234.75,235.0,223.5,205.0,192.75,181.75,177.0,174.75,176.5,177.75,178.0,178.5,179.25,180.5,181.5,184.75,187.0,190.5,196.0,203.25,207.0,208.5,213.0,211.5,210.0,215.75,218.25,217.25,214.0,216.5,224.5,231.5,242.0,247.5,249.0,251.5,252.0,260.5,266.5,271.5,278.5,285.0,290.0,286.5,288.0,288.0,289.5,293.0,292.5,285.0,285.75,299.5,316.25,328.5,340.0,353.5,369.0,379.25,380.5,382.25,386.25,402.0,422.5,433.0,447.75,475.0,494.0,476.25,455.5,434.0,404.25,390.0,371.75,365.0,355.25,350.25,339.0,332.5,329.5,329.25,342.25,342.75,329.0,331.0,340.25,346.5,337.0,324.0,314.5,298.75,282.25,275.75,273.5,267.0,262.75,265.5,262.25,261.25,263.0,260.0,262.75,264.75,267.25,274.5,278.25
129.0,135.0,134.0,131.4958021,130.0,139.0,147.0,148.5,145.4628972,141.0,141.5,149.0,164.0,170.6052011,171.5,174.5,167.0,172.5,180.9510084,185.5,181.5,181.0,188.5,201.4145756,214.5,225.0,236.5,238.0,237.1099991,240.5,246.5,238.5,234.0,233.6139815,236.5,236.5,233.5,223.5,225.2355383,231.5,224.5,212.5,200.5,194.0806921,186.5,183.5,197.0,197.5,191.0129272,190.5,201.0,208.5,206.0,209.1799326,220.0,221.0,205.0,195.0,199.110025,207.5,216.0,226.5,220.5,211.9401212,202.5,204.0,218.0,226.5,232.5578333,235.5,237.0,240.0,244.0,244.9469023,244.5,235.5,231.0,229.0,219.9424085,208.5,210.5,220.0,210.0,204.5810157,205.0,214.0,223.5,221.0,216.8858684,216.5,220.5,222.0,223.0,225.3834701,232.0,238.0,236.0,221.0,204.3072987,191.5,181.0,178.5,178.0,177.7766375,178.5,178.5,179.0,180.0,182.2689233,183.0,184.5,187.0,191.5,194.9894628,203.5,206.5,203.5,204.0,203.6720206,202.0,206.0,211.0,212.0,211.6278,216.0,225.5,235.0,245.5,246.4293707,248.5,253.5,252.0,255.0,261.3467791,269.0,271.5,277.0,278.5,275.0552987,278.5,281.5,284.0,283.5,280.26192,276.0,279.5,295.5,310.5,323.8535879,338.5,359.0,368.5,369.0,367.6525039,370.5,379.5,402.5,425.0,436.0026523,446.5,470.5,491.0,471.5,453.7884701,428.0,404.0,388.5,378.5,375.6331148,367.0,360.0,349.5,342.0,338.5255967,333.5,345.5,354.0,346.5,346.4184391,352.5,357.0,347.0,329.0,314.2976547,295.5,284.5,283.5,282.0,274.4767695,269.0,269.0,263.5,261.0,262.9908225,263.0,266.0,268.0,267.5,270.6913995,274.0
126.5,133.5,137.25,135.0,132.0,139.75,147.25,153.0,152.0,146.75,143.25,147.0,158.0,167.5,174.0,180.5,175.25,178.75,182.5,188.0,187.0,185.75,188.5,198.0,206.5,213.0,223.25,223.25,223.0,224.75,234.5,227.25,222.75,226.5,232.75,240.0,243.5,236.5,234.0,236.75,227.25,209.5,197.75,194.5,191.75,188.5,202.75,202.25,194.0,194.5,202.25,212.5,212.75,213.0,222.75,221.75,206.0,199.5,201.5,207.75,221.25,232.5,225.0,215.0,205.75,204.25,216.75,228.5,237.0,241.5,245.0,245.0,243.5,240.0,235.75,236.0,239.5,234.0,223.5,214.75,214.25,220.0,210.75,206.0,208.75,212.75,222.0,226.25,224.5,223.5,223.75,221.5,222.25,222.5,225.5,228.0,226.25,213.5,199.0,189.75,182.25,179.75,179.0,178.0,179.0,178.75,179.75,180.75,183.0,184.0,184.5,185.5,188.75,192.5,199.75,202.0,194.75,197.25,199.5,202.5,205.0,207.75,208.25,209.5,216.25,225.5,237.0,243.0,241.5,243.25,247.0,245.5,247.75,256.0,264.5,265.75,267.25,265.0,263.5,268.25,269.75,273.5,273.25,272.5,271.5,283.5,297.5,313.5,326.5,337.5,353.25,357.5,353.0,356.0,366.0,389.0,417.25,438.25,451.5,457.5,474.5,491.5,473.75,456.0,439.0,418.0,406.25,396.25,391.5,380.0,367.0,356.75,350.0,350.0,346.5,349.0,362.0,361.5,360.5,364.5,364.5,352.0,329.5,312.0,295.5,289.0,294.75,290.5,282.0,276.25,272.75,265.25,261.75,263.5,266.75,270.0,271.0,268.0,268.0,270.5
120.25,128.0,133.5,135.0,137.75,142.5,147.25,156.75,159.0,155.0,149.5,151.75,154.75,160.0,168.25,179.75,184.5,186.5,186.0,186.75,186.75,188.0,189.75,194.0,198.75,199.75,206.0,204.25,209.5,218.75,227.5,216.75,210.5,216.5,220.5,232.0,241.0,245.25,243.0,239.0,228.25,216.25,209.0,206.5,202.5,196.5,208.5,209.75,203.5,205.25,205.75,213.5,221.25,221.0,225.5,221.0,209.5,210.5,213.0,216.25,229.25,237.5,228.5,222.0,216.0,211.5,218.0,224.5,232.5,238.75,240.25,242.5,234.75,231.5,231.25,241.0,247.75,239.75,232.0,224.25,220.5,220.75,213.25,211.5,215.5,220.0,226.25,233.25,229.5,225.0,218.75,214.25,212.5,212.5,211.5,208.25,206.0,198.75,189.0,186.0,183.5,181.5,180.75,178.0,179.5,179.0,179.5,180.5,182.5,183.75,184.0,185.5,187.75,191.0,193.0,192.5,194.5,200.75,205.5,210.75,215.0,216.5,216.0,217.5,219.5,223.75,232.75,237.5,235.5,235.5,238.75,237.0,243.25,256.0,263.5,258.25,258.5,254.25,255.0,259.25,257.5,261.25,264.25,266.5,271.75,287.0,304.75,318.5,327.5,329.5,330.5,334.75,340.25,353.5,374.5,408.5,440.0,460.5,472.0,478.5,494.0,506.25,493.75,479.0,463.5,444.0,433.75,420.0,410.5,397.25,379.5,362.5,360.25,366.0,361.0,353.25,370.5,381.25,383.5,382.5,372.0,350.5,324.5,306.0,297.75,300.0,308.75,300.25,294.5,287.75,274.5,264.25,263.25,265.0,270.5,274.25,271.0,268.75,267.0,269.0
119.75,124.75,126.5,129.0,133.25,138.0,145.25,154.25,158.0,160.25,158.5,164.0,165.5,166.0,167.25,178.25,187.25,186.75,185.0,179.75,175.0,177.75,182.25,186.0,187.0,188.5,195.0,200.0,214.0,222.75,223.75,206.25,198.0,201.0,205.0,214.0,228.75,238.25,237.5,232.75,221.5,219.25,223.0,217.0,211.25,208.25,215.0,216.75,210.0,213.5,214.5,215.0,226.5,233.5,231.25,220.5,217.25,222.25,222.5,225.25,236.0,245.75,241.0,235.0,228.75,225.75,230.5,232.25,235.0,237.0,232.75,226.0,222.5,225.0,230.75,241.75,251.25,250.25,243.0,231.25,227.75,229.25,222.0,224.0,222.5,229.5,230.75,235.0,229.5,223.75,213.5,207.5,203.75,203.5,202.0,196.5,192.75,187.25,185.5,184.75,184.25,182.5,181.25,179.0,179.5,179.75,178.75,179.5,182.5,183.75,184.25,184.75,187.75,189.5,190.75,193.25,198.5,203.75,209.0,215.25,220.75,225.5,228.25,228.5,223.25,223.25,229.25,232.5,231.0,229.5,232.25,236.5,246.25,259.0,262.75,254.75,249.0,248.75,248.0,250.75,252.5,258.5,266.0,270.5,276.5,289.25,304.75,316.25,319.0,315.75,320.5,332.75,348.0,364.5,389.25,421.5,449.75,472.5,487.0,496.25,512.5,524.25,518.75,505.0,488.5,472.0,464.0,446.5,428.5,416.5,393.75,371.75,374.0,383.5,380.25,365.75,376.0,397.25,402.5,395.75,372.25,343.75,320.5,309.0,308.25,315.25,323.75,313.25,309.0,302.75,284.25,269.5,266.25,267.0,271.25,272.0,267.5,267.5,268.0,270.5
124.0,122.0,122.0,123.5,127.5,131.75,137.0,146.0,152.0,157.75,164.0,175.0,178.25,176.0,177.0,183.0,182.0,176.25,176.0,171.5,164.5,166.25,172.0,173.0,175.25,181.0,189.25,203.25,214.0,219.5,216.0,198.25,187.25,190.0,194.0,200.75,218.25,224.0,216.0,212.0,208.5,215.75,223.0,220.0,214.75,217.0,222.0,223.75,219.5,223.25,225.5,219.25,228.75,240.5,238.75,228.75,225.5,235.5,237.5,238.5,244.5,247.5,245.0,243.5,237.5,237.75,242.25,240.75,239.0,236.75,226.75,215.0,218.0,223.5,228.5,236.0,246.75,256.0,252.5,240.5,235.0,238.5,234.75,238.5,236.0,238.5,238.5,235.5,230.5,224.5,213.25,205.75,200.25,198.0,194.75,190.0,188.25,186.25,185.0,184.75,184.0,182.5,182.5,180.5,179.0,180.25,180.25,181.75,189.5,187.0,185.5,185.75,186.75,188.5,190.75,194.75,198.25,204.25,210.0,213.25,216.75,223.0,224.75,224.0,220.75,221.75,227.0,229.0,228.5,228.25,232.0,238.25,250.75,256.5,257.0,251.0,245.25,243.25,244.0,249.75,256.0,266.0,275.25,276.5,282.25,296.25,306.5,310.5,309.0,311.5,326.5,345.0,366.5,384.0,403.0,425.0,446.0,468.25,484.0,501.75,512.25,518.25,522.5,518.5,510.75,500.0,490.25,470.75,451.5,430.25,402.0,383.0,394.0,402.0,399.25,386.5,390.25,407.0,410.0,393.75,367.25,343.0,326.5,323.5,330.25,336.25,339.25,329.0,319.5,310.25,296.0,278.25,269.0,267.5,270.75,272.75,267.75,268.5,269.5,271.25
127.0,125.5,124.5,125.8840345,126.5,129.0,133.0,140.5,145.7264429,152.0,162.0,175.5,181.5,178.2026195,177.5,181.5,175.0,166.0,165.5073998,165.0,159.0,161.0,166.5,168.9832927,172.5,181.5,191.0,199.5,203.429349,209.0,205.0,191.0,182.5,185.4996446,189.0,198.0,215.0,212.5,204.3105886,198.0,200.5,210.0,216.0,213.9699133,212.5,219.5,225.5,230.5,231.9560887,236.5,233.5,226.5,229.0,238.0866693,243.0,240.0,236.5,245.0,245.1723472,248.0,246.5,242.0,239.0,237.6569134,237.5,240.5,245.5,241.0,232.9350752,227.0,215.0,207.5,220.5,226.9266766,232.0,237.5,244.0,253.0,254.7938085,248.0,245.0,247.0,245.0,247.7265149,246.5,243.0,236.5,231.5,226.5749588,220.0,211.5,204.5,197.5,195.9195255,194.0,190.0,189.0,186.5,185.7977369,185.0,185.0,183.5,183.5,181.6833123,179.0,180.5,182.0,182.5,186.0751524,188.0,188.0,187.0,186.0,187.8189199,188.5,193.5,198.5,202.5,206.9997198,210.5,213.0,217.0,220.0,219.2110621,217.5,222.0,223.5,227.5,228.0767248,228.5,232.0,238.5,247.0,247.5793143,246.0,246.5,245.0,243.5,246.0150011,252.5,261.5,273.0,283.5,285.9365519,289.0,298.0,306.5,302.5,302.6540251,311.5,331.0,356.0,379.5,395.935232,411.0,422.5,434.0,460.0,475.2810711,492.0,499.0,503.5,508.5,513.142285,519.5,519.0,507.5,484.5,467.0050917,442.5,409.5,393.0,410.0,418.5485575,413.0,401.5,404.5,416.0,410.8964904,389.5,365.0,348.0,340.0,340.180418,345.0,348.5,345.0,333.0,320.1603982,307.0,296.0,281.5,272.0,271.4391729,273.5,274.5,269.5,269.5,269.3463979,270.5
127.5,131.5,133.5,134.0,134.0,132.5,133.5,138.25,143.5,152.0,162.0,173.5,179.25,176.0,172.25,172.0,170.25,159.5,156.0,154.75,154.75,161.0,169.5,173.0,179.25,182.75,189.25,190.0,192.5,198.0,195.0,184.0,178.75,183.5,191.5,203.5,214.0,208.75,197.0,189.0,194.5,201.5,207.0,205.5,207.0,217.0,223.75,229.0,234.0,241.5,243.0,238.75,236.25,240.0,244.75,247.0,245.75,245.75,245.0,245.0,241.25,233.5,226.25,227.0,230.25,233.75,237.0,233.75,223.0,214.75,204.75,204.5,221.75,229.5,234.25,243.5,249.0,253.0,255.0,252.5,255.5,258.0,256.5,257.0,251.25,244.0,229.25,221.75,217.0,211.0,205.75,201.25,197.25,196.5,195.0,194.0,191.0,187.75,186.5,185.75,185.25,182.75,183.75,181.5,181.0,181.0,181.75,182.0,183.5,185.5,188.5,187.5,187.0,189.5,188.75,192.75,196.0,199.0,202.5,203.75,206.5,211.25,217.5,217.0,214.5,217.25,220.5,225.0,226.5,228.75,230.5,233.5,237.0,239.5,240.25,243.75,244.25,244.25,247.0,252.75,264.0,276.25,288.25,291.0,294.5,297.75,298.0,293.25,299.5,311.75,334.25,361.75,387.0,402.0,409.0,410.0,419.75,448.75,465.5,478.0,480.5,485.25,487.75,494.5,509.5,520.25,518.0,495.0,476.0,455.75,423.0,409.25,423.25,437.5,431.0,419.0,423.5,425.5,415.0,396.5,378.0,364.25,358.25,354.5,354.5,350.0,342.0,328.5,316.0,301.0,291.25,281.0,274.0,276.0,277.5,275.0,271.0,269.5,269.0,271.75
126.25,134.25,141.0,145.5,145.0,143.75,143.25,143.0,148.5,156.75,163.75,168.25,169.25,170.0,160.75,158.5,160.0,153.0,148.5,150.0,155.25,165.0,170.75,174.5,180.25,178.25,178.25,179.25,181.5,188.5,185.0,177.25,179.25,189.5,199.0,208.75,210.75,204.5,192.5,184.5,186.75,191.0,194.75,197.5,200.75,208.0,216.5,223.25,228.0,240.0,250.0,249.75,245.75,244.5,245.0,246.25,243.5,237.0,232.5,227.25,226.5,220.0,211.0,212.0,221.5,223.5,218.25,223.75,219.0,208.25,197.0,205.25,219.5,228.5,234.0,244.75,252.25,249.0,245.5,248.5,258.25,266.25,266.25,265.5,254.0,240.25,224.0,217.5,215.0,210.75,208.0,203.5,202.0,202.5,198.5,200.25,195.75,191.0,187.5,185.0,183.5,182.75,185.0,183.0,182.0,182.0,182.25,183.25,184.5,184.0,186.0,186.5,188.0,191.0,190.0,192.5,194.25,197.25,199.5,200.0,201.75,207.5,214.25,216.0,213.5,216.0,220.0,223.25,224.5,228.5,228.5,228.75,230.25,234.5,238.0,241.25,243.5,246.5,250.5,255.75,264.75,272.0,283.5,286.0,288.0,289.25,286.5,288.75,301.5,313.75,334.75,360.5,380.5,389.0,389.25,386.5,407.75,437.25,452.0,452.25,451.75,454.75,465.75,473.0,487.5,511.0,525.75,508.0,489.5,474.0,449.75,434.0,442.0,458.5,458.25,447.0,447.5,435.25,418.5,407.0,390.5,374.0,367.5,360.5,353.25,338.0,327.0,314.75,306.0,296.75,288.75,282.25,277.25,282.0,282.0,275.5,272.5,271.75,272.5,274.0
124.25,131.0,140.75,146.0,149.0,155.5,155.25,153.25,156.5,159.5,161.5,156.75,158.25,164.0,157.0,148.0,145.5,142.75,145.5,151.25,162.0,169.75,165.0,168.0,173.75,167.5,165.0,170.5,176.5,180.0,174.75,174.0,183.0,193.5,200.75,201.75,197.25,194.25,187.0,181.0,181.75,186.75,195.5,201.0,206.5,214.25,223.75,231.5,234.5,244.0,249.5,245.25,244.5,242.0,240.75,240.5,231.0,221.25,219.0,213.0,215.5,207.25,199.25,205.5,219.25,220.0,207.25,211.5,213.5,203.0,196.25,208.75,220.75,229.5,236.0,243.5,247.5,240.0,236.0,239.75,249.5,260.25,268.0,269.5,258.25,241.5,226.0,221.75,222.0,223.0,218.25,210.0,208.0,209.0,204.0,203.75,199.5,194.75,190.0,185.75,184.75,185.25,187.0,185.5,183.25,185.25,185.25,185.5,190.0,188.0,186.0,185.25,189.0,192.5,191.5,190.5,193.75,197.75,200.5,202.5,204.75,206.25,210.75,211.0,210.75,213.5,218.75,219.75,221.5,224.25,226.0,227.5,229.0,233.0,237.0,239.0,241.75,248.25,251.5,256.75,264.0,265.0,270.75,274.5,275.5,277.5,280.25,289.25,300.0,310.25,327.75,348.25,364.25,367.5,364.0,367.75,397.0,420.5,428.5,427.25,427.75,433.5,446.0,458.0,474.75,498.25,512.0,520.75,510.5,493.0,472.5,456.75,464.75,477.5,476.75,467.75,458.0,437.0,413.5,398.5,382.5,363.75,349.75,343.0,335.5,323.0,311.25,299.75,295.5,290.0,284.25,279.0,277.25,284.5,285.25,275.75,272.75,273.75,275.5,275.75
124.5,126.5,135.25,141.5,149.25,162.5,166.0,165.5,164.5,162.0,153.75,145.75,153.0,159.0,153.5,142.0,139.0,143.0,149.0,158.25,169.5,169.25,157.5,158.0,162.5,159.25,158.5,168.25,172.5,172.0,167.0,170.75,178.5,187.0,193.0,188.0,182.0,181.25,177.0,177.5,186.0,193.5,205.25,214.0,220.25,224.75,232.25,238.0,243.0,246.0,242.25,230.25,225.75,229.0,237.75,239.25,227.0,211.25,209.0,205.5,207.25,199.75,196.25,204.0,212.25,217.75,203.75,197.75,198.5,193.25,197.5,211.0,222.25,229.0,231.0,230.5,230.75,227.75,226.0,233.25,241.75,253.25,264.75,265.0,256.25,239.25,227.25,229.75,233.0,231.75,223.75,214.25,217.0,218.0,212.0,208.25,202.25,196.0,191.5,188.75,186.25,187.0,188.75,191.0,191.0,193.75,191.5,189.0,191.5,190.75,188.0,189.0,190.75,192.0,191.5,192.5,195.5,201.25,201.0,201.75,206.0,211.25,209.75,207.5,207.75,211.25,216.5,217.25,221.0,223.5,224.25,227.25,230.25,233.5,237.0,237.75,240.5,245.75,250.0,254.5,258.75,260.25,263.25,267.0,268.5,270.75,275.5,286.0,295.5,305.5,323.75,340.75,349.25,348.5,342.75,357.75,379.75,394.5,404.5,404.25,408.25,420.25,439.75,458.5,475.0,485.5,493.0,518.75,523.0,509.0,488.75,479.5,483.0,489.5,490.5,476.75,455.75,430.5,404.0,382.0,365.0,345.25,331.25,325.0,317.75,309.75,299.0,289.25,285.5,285.25,280.25,274.25,283.25,288.5,286.5,279.0,274.0,275.5,277.5,278.75
129.0,126.5,133.0,141.1965407,150.0,163.0,168.0,169.0,165.4326085,160.5,148.5,139.0,148.5,150.5895543,146.0,137.0,139.5,148.5,155.3808577,164.0,169.5,162.5,153.5,152.4038863,154.5,157.5,161.0,171.0,173.6304838,173.0,164.5,164.0,170.5,179.4830607,184.5,179.0,174.0,175.5,174.9590902,179.5,190.5,200.5,212.0,218.5942879,223.5,222.5,226.5,233.0,237.5678149,241.0,232.0,217.5,217.5,226.562603,237.0,237.0,226.5,212.0,204.730928,201.5,200.5,194.5,198.5,207.5388751,210.0,214.0,202.0,191.0,188.6747873,190.0,198.5,212.0,222.0,224.6933769,224.0,220.0,220.5,221.5,224.1375775,230.5,241.0,253.0,262.0,263.2767923,255.5,241.0,232.5,239.0,238.7973637,234.5,225.5,221.0,224.5,225.0601537,219.5,210.5,202.5,195.5,193.8855192,190.0,186.5,187.5,191.0,193.5095134,196.0,198.5,196.0,191.0,191.0631743,191.0,190.5,190.5,191.5,191.0767248,191.5,194.0,196.0,199.0,199.491451,201.0,206.0,212.0,208.0,206.6543518,206.5,210.5,214.5,216.0,222.3894618,225.0,224.5,228.5,232.0,232.5228294,235.0,238.0,244.0,249.0,251.8652157,255.0,259.5,261.5,263.0,265.4720169,266.5,271.0,275.5,284.0,295.7170063,309.0,326.5,335.0,335.5,333.7142984,333.0,346.0,364.5,380.0,389.1456047,391.5,403.0,421.0,443.5,456.5138724,468.0,472.0,481.5,509.5,520.3413431,516.0,500.0,499.0,498.5,498.6178474,496.0,478.0,450.5,419.5,395.208484,375.0,353.0,336.5,325.0,321.4864089,313.5,308.0,300.0,290.5,286.8803854,283.5,264.0,271.0,285.0,288.3998747,286.0,280.5,275.5,276.0,278.6734268,281.0
137.25,131.25,134.5,143.0,150.5,161.75,168.0,170.0,164.5,156.25,145.0,135.25,142.25,143.0,138.25,133.5,139.5,150.75,158.5,162.0,162.75,155.0,149.25,150.0,151.25,161.25,169.75,175.25,179.5,176.75,163.0,159.5,168.25,177.5,177.0,171.0,170.75,172.75,177.0,184.0,191.25,199.75,212.75,217.0,217.0,211.5,216.0,223.75,232.0,237.0,227.25,214.0,217.5,229.5,233.5,230.25,227.0,214.75,204.5,196.5,191.5,188.25,199.5,210.0,206.0,205.75,198.75,185.0,182.5,187.25,200.75,215.0,217.75,216.5,213.5,212.75,219.0,226.0,230.0,238.25,244.75,253.0,260.25,264.5,261.25,247.75,243.5,251.0,244.0,233.0,225.5,228.75,233.5,233.5,226.0,212.0,202.75,197.75,196.5,194.0,189.25,189.5,192.5,194.5,196.75,199.5,197.75,192.5,191.0,191.5,190.25,189.0,188.5,189.5,191.5,195.5,195.25,197.0,200.0,202.25,204.5,208.5,207.75,207.5,205.75,212.0,218.0,221.75,227.5,228.5,228.0,230.5,233.0,232.5,235.75,240.25,250.0,253.25,255.5,257.25,261.5,262.75,265.5,268.0,267.25,270.25,276.25,285.0,298.0,311.5,323.75,324.75,324.25,325.5,329.75,340.5,357.5,373.5,381.5,392.75,401.5,414.75,436.75,450.0,455.0,456.0,468.0,498.0,515.5,522.25,516.75,513.5,507.75,506.0,500.0,474.5,443.75,410.5,386.5,369.75,350.25,339.75,331.5,328.5,324.5,319.25,308.25,295.25,290.0,283.5,269.75,275.25,287.0,289.5,287.25,282.25,279.5,278.75,279.5,283.25
147.25,140.5,135.25,139.5,149.0,154.0,162.25,164.25,155.0,147.75,137.75,130.25,132.25,133.0,132.25,131.0,135.0,143.5,146.5,147.75,146.5,145.0,152.5,158.5,161.0,169.25,177.0,180.25,181.0,174.75,160.0,157.5,164.5,168.0,165.75,165.5,171.25,176.25,183.0,190.5,195.25,199.25,204.5,203.5,204.0,205.25,214.25,223.5,231.5,233.25,221.5,208.75,217.5,226.5,221.5,214.5,219.25,216.5,207.5,194.75,184.25,183.5,195.5,200.5,196.5,191.75,189.0,181.25,179.0,185.75,200.75,208.75,206.5,203.0,206.25,215.75,231.0,240.75,247.0,252.75,258.0,260.5,264.75,267.5,270.5,262.0,258.0,256.0,244.5,230.25,230.75,239.25,241.0,237.5,227.25,212.0,203.75,201.5,201.5,197.75,196.25,192.75,194.5,196.0,198.25,201.5,199.0,196.75,193.5,193.75,192.0,188.0,186.75,187.5,191.5,196.25,196.25,197.5,205.5,208.0,202.0,203.0,206.75,208.0,207.5,217.75,224.75,230.5,232.5,235.0,234.0,233.5,236.5,237.5,241.5,247.25,253.0,254.25,258.0,261.5,264.25,266.75,269.25,270.5,270.75,273.0,279.5,284.75,294.5,301.5,305.75,311.0,314.5,320.0,325.75,337.5,356.25,370.0,375.0,383.5,387.25,400.5,420.5,433.5,438.75,439.75,458.0,488.0,500.0,511.5,521.75,522.75,507.0,498.5,488.0,468.25,437.0,403.0,381.5,369.75,360.0,357.5,351.0,345.0,340.0,332.75,318.25,297.75,290.0,284.5,272.25,280.25,286.5,290.5,290.25,287.0,285.75,286.0,285.0,286.75
157.0,149.0,140.0,140.0,148.75,154.5,160.0,154.5,146.0,137.5,130.0,125.25,127.5,128.5,129.75,131.75,134.25,136.0,137.0,138.75,139.75,146.75,158.0,162.5,165.75,168.5,173.0,172.75,171.0,162.75,155.25,153.0,158.0,159.0,159.25,162.75,168.75,176.25,183.0,185.75,190.25,197.0,193.5,192.0,197.75,206.5,220.0,227.0,226.0,220.0,210.5,205.5,216.5,224.0,214.0,201.25,202.25,207.75,206.0,195.0,180.0,179.0,185.5,188.5,184.5,178.75,178.25,178.75,179.5,183.75,192.75,196.25,197.25,204.0,214.75,225.25,238.0,249.0,252.0,252.25,258.5,263.75,270.75,272.0,278.0,275.0,265.0,252.0,240.5,233.5,244.75,247.0,242.0,233.5,223.0,210.5,212.75,213.25,211.5,207.25,200.75,195.0,197.0,198.5,201.0,203.5,200.25,201.0,198.0,195.5,197.25,193.5,187.5,187.5,192.5,196.5,194.75,195.0,205.5,209.75,203.75,201.25,201.5,203.0,208.75,219.5,226.75,235.25,239.0,239.0,235.75,235.75,244.75,248.0,249.5,254.0,253.25,252.5,257.5,261.75,264.5,272.75,275.0,275.0,275.0,280.25,283.25,285.75,291.0,294.25,294.75,302.75,309.5,319.0,325.25,330.25,344.5,359.0,360.5,364.5,373.25,387.25,411.0,417.5,420.0,430.5,456.0,471.75,477.5,490.5,518.75,522.75,501.75,482.5,467.5,452.25,421.75,397.25,387.5,389.75,388.75,382.75,371.5,360.0,347.5,333.75,316.5,297.25,288.5,281.75,274.75,288.0,289.0,293.5,294.0,292.75,294.0,296.25,297.0,294.25
164.5,157.25,148.5,145.5,148.5,156.25,159.0,147.25,138.5,130.25,123.75,120.75,125.5,128.5,132.75,141.0,145.0,145.0,144.5,143.0,143.75,148.0,153.75,158.0,157.5,155.75,158.75,157.0,155.5,151.75,151.25,151.75,157.75,159.0,160.25,161.75,167.0,172.25,176.0,175.5,181.5,188.0,190.25,195.5,199.0,214.25,224.0,222.75,217.5,206.75,201.0,204.75,218.0,220.5,212.5,196.0,190.5,198.0,203.0,195.75,177.75,173.0,176.0,178.5,175.5,174.5,178.75,181.75,182.5,184.75,188.75,191.75,197.0,202.5,211.0,221.0,228.5,238.25,240.5,239.25,246.75,255.0,261.0,267.5,277.25,281.75,267.25,251.5,243.0,238.5,251.5,252.75,236.75,225.5,219.5,214.25,222.5,226.5,223.5,217.0,207.0,198.5,198.5,200.5,204.25,208.0,206.25,207.25,204.0,199.0,201.5,203.25,197.25,194.5,194.25,197.75,194.75,194.25,199.5,203.5,203.75,200.5,199.0,202.5,209.5,218.25,230.5,240.5,246.0,246.75,245.0,241.25,250.0,257.0,256.75,252.5,251.5,252.0,256.5,258.25,263.75,278.0,285.0,285.5,280.5,286.75,292.5,296.25,297.5,294.75,295.0,306.0,324.0,338.0,346.5,345.5,346.0,353.75,354.0,358.75,364.25,377.25,396.5,402.0,410.0,429.0,445.75,451.25,469.5,489.0,512.75,521.25,510.0,484.0,465.5,440.5,415.0,403.0,407.0,416.75,415.5,399.0,380.0,364.0,346.5,328.25,311.25,297.75,289.0,282.25,278.75,289.25,288.5,292.5,294.25,295.5,302.5,309.0,308.5,301.5
169.0,164.0,158.0,154.4879106,151.5,157.0,154.5,141.0,132.5126611,125.0,118.0,120.0,125.0,130.2987418,137.5,148.5,153.0,151.0,148.3409439,146.5,143.0,142.5,144.5,147.1189515,149.0,145.5,149.5,148.0,148.4404725,148.0,151.0,153.5,161.0,163.9542263,166.5,166.5,169.0,170.0,173.7177408,175.0,182.0,189.0,194.5,199.4769478,201.5,215.0,222.5,215.5,207.9934488,199.0,196.5,204.0,214.0,213.0694784,209.0,196.0,185.0,188.0,194.6417028,192.0,176.0,169.0,169.5,170.6239008,169.0,174.5,183.0,184.5,186.3100925,189.5,196.5,199.0,202.5,206.300671,207.5,210.5,216.5,223.0,227.5537446,230.0,237.5,244.5,251.5,262.9409918,274.5,284.5,275.5,261.5,252.1115567,242.5,253.0,253.5,233.5,225.1007391,222.0,219.5,226.5,234.0,229.0212728,221.5,209.0,201.5,200.5,202.3449255,206.5,212.0,213.5,212.5,209.3920219,205.5,205.0,212.0,208.0,201.8527488,197.5,197.5,195.5,195.5,197.1333803,198.5,205.0,199.0,200.5,205.8510678,214.5,220.5,229.5,242.5,247.9869426,251.5,252.0,248.0,251.5,260.3216238,260.0,249.5,248.5,250.5,255.0655765,259.5,269.0,281.0,289.0,289.5283198,283.5,288.5,300.5,310.0,311.530266,303.0,298.5,311.5,330.0,342.8923931,358.0,367.0,367.0,367.0,366.3125757,370.0,370.5,372.5,385.5,392.4121664,402.5,417.5,429.0,440.5,462.2882042,486.0,500.5,512.5,514.0,492.724635,468.5,441.0,427.5,422.5,423.5114513,427.0,424.0,401.0,379.0,362.1388707,342.5,326.5,312.0,301.0,294.6112336,286.5,281.5,288.5,289.0,290.1914859,291.5,296.0,306.5,314.5,315.7379075,310.5
166.75,167.25,165.0,163.0,158.25,160.5,151.75,134.5,126.5,118.25,116.75,123.0,128.5,132.0,140.0,149.5,150.5,148.5,145.5,141.0,137.5,136.25,135.75,138.0,142.75,139.5,141.0,143.75,146.5,146.5,151.75,158.0,168.75,172.5,176.5,178.0,177.0,173.75,176.5,178.75,186.5,194.0,199.25,205.0,209.75,219.25,221.25,209.75,199.0,193.0,193.5,203.0,209.0,206.0,203.0,193.75,181.75,181.0,186.0,182.25,171.5,167.0,167.75,169.0,170.75,177.75,183.75,187.5,191.0,196.5,206.75,211.25,215.25,218.0,214.75,213.0,214.25,221.25,225.0,229.25,235.75,246.25,256.75,266.0,275.5,289.75,286.25,272.5,260.5,250.5,257.0,253.5,234.25,226.0,230.0,228.5,230.75,239.0,231.5,221.25,208.5,204.0,203.5,203.5,208.5,216.0,221.25,220.5,213.5,211.0,214.0,220.0,217.0,208.5,203.75,199.5,197.25,198.0,197.5,197.25,202.0,198.75,200.25,207.0,213.25,218.25,229.0,241.5,247.5,252.25,254.5,254.5,257.75,265.5,261.75,249.75,248.0,251.25,256.0,262.25,269.25,277.25,285.5,292.0,289.75,295.75,313.25,324.5,329.5,316.75,304.75,310.5,326.75,341.0,356.5,375.0,387.5,390.0,384.0,388.0,392.0,385.5,390.0,391.5,397.75,408.75,418.0,434.5,454.5,468.25,481.5,499.0,512.0,497.5,475.25,453.5,445.75,445.75,440.0,437.5,430.5,406.0,379.75,362.5,345.5,331.0,321.5,313.75,305.0,296.0,284.5,285.0,289.25,290.5,292.0,296.75,304.75,314.5,320.0,317.25
159.0,163.5,165.75,166.0,162.5,158.0,146.5,128.25,118.0,113.0,115.75,125.5,132.75,134.0,138.75,139.75,138.25,137.75,132.5,130.75,130.5,130.5,132.25,135.5,141.0,142.25,140.25,146.25,151.5,153.0,156.75,160.25,173.5,178.0,186.5,192.75,189.5,184.0,180.0,183.5,192.75,201.75,209.5,215.5,221.75,227.25,223.75,208.5,197.5,187.25,186.75,200.25,201.5,195.5,191.5,191.5,177.25,173.25,175.5,173.75,166.25,165.0,167.75,169.5,174.25,179.75,183.25,192.25,199.0,206.5,215.25,221.0,221.5,225.5,228.25,229.0,226.5,228.0,229.0,234.75,243.75,258.5,272.0,274.0,278.75,286.5,295.0,288.75,279.0,268.0,266.0,256.0,238.75,234.5,239.0,244.75,242.75,242.0,232.0,218.5,210.25,209.0,208.0,206.5,209.5,221.75,230.75,229.75,221.0,222.0,227.25,228.75,220.25,208.5,203.25,202.25,198.25,200.25,198.5,198.0,199.5,198.5,200.0,203.5,208.25,214.25,227.0,240.0,243.0,245.5,250.75,259.0,262.5,265.5,262.75,255.75,249.75,254.25,259.0,259.0,261.75,270.75,281.25,291.0,296.75,307.75,324.75,341.75,346.5,333.25,313.25,310.25,326.5,339.5,356.5,377.75,400.25,409.5,406.5,412.25,419.5,406.5,412.5,414.5,413.0,421.25,428.5,431.5,442.5,456.75,474.5,495.25,517.25,513.5,496.75,478.5,473.5,466.25,459.5,451.75,439.0,418.0,393.0,376.0,360.75,346.25,335.75,330.25,325.0,312.25,293.5,286.0,288.25,292.5,293.5,295.5,300.0,310.0,317.5,322.0
150.25,155.25,154.0,153.5,155.25,147.75,135.75,120.0,112.5,111.75,116.25,124.25,130.25,130.0,126.75,127.25,125.0,124.25,122.5,124.5,127.75,129.25,134.75,137.5,145.0,149.5,150.0,156.25,161.5,163.0,168.25,173.25,179.0,181.5,188.75,194.75,194.25,190.0,190.5,194.25,200.25,211.0,218.5,226.0,226.25,223.0,221.75,208.75,196.0,183.0,178.5,193.75,196.0,187.0,181.25,183.75,173.25,167.0,166.0,163.0,161.25,163.75,167.75,169.5,172.25,176.5,182.25,193.75,200.5,203.75,210.25,211.25,212.5,217.0,222.25,226.25,224.75,225.25,227.0,235.0,247.25,257.5,268.75,271.5,272.25,282.25,299.5,307.0,300.5,291.25,276.5,264.0,255.75,251.0,249.25,258.5,252.75,240.75,231.5,220.5,214.0,213.0,211.5,209.5,212.5,225.25,236.75,239.5,235.0,236.75,235.25,227.0,217.0,210.0,207.5,204.5,201.0,204.5,201.0,198.75,199.75,198.75,201.25,202.5,204.5,211.75,222.25,234.25,233.5,234.25,243.75,250.5,254.0,257.0,261.25,261.75,255.25,256.75,257.5,255.75,258.25,267.25,277.75,283.0,292.75,307.0,321.5,337.5,349.0,342.5,322.0,313.5,329.75,350.5,365.5,385.0,408.25,424.75,431.5,431.5,437.5,428.75,436.75,436.5,430.5,445.0,456.25,444.25,446.0,464.25,493.75,511.0,531.75,531.5,521.5,505.0,491.75,476.5,466.5,454.75,433.25,417.0,396.75,382.0,371.5,354.25,339.0,329.75,325.0,318.0,306.5,294.75,288.5,292.0,294.75,297.0,298.25,303.25,310.0,322.5
137.75,141.75,140.75,140.5,140.5,133.5,125.5,116.75,112.0,112.5,117.0,118.5,121.25,123.0,121.0,119.0,119.0,121.0,121.5,124.75,130.25,136.25,144.5,146.5,154.0,159.75,160.25,168.0,173.5,173.25,176.5,180.75,183.75,187.0,188.25,187.75,188.75,191.25,197.0,201.25,206.75,213.25,212.75,213.0,211.75,209.0,214.5,204.25,190.5,180.0,174.5,187.25,193.5,182.5,173.75,172.5,167.25,161.25,159.0,157.75,161.0,164.0,165.0,166.0,168.75,175.75,183.0,190.0,193.0,192.5,196.0,197.25,197.5,201.0,202.25,207.0,210.5,215.25,220.5,229.0,237.5,244.25,256.0,257.0,262.75,280.5,296.75,307.25,304.0,298.5,286.5,278.5,276.75,269.0,266.5,268.0,255.5,240.0,231.0,225.5,221.25,218.0,217.0,215.5,216.25,223.75,236.5,246.25,248.5,244.25,233.25,224.5,218.25,215.0,214.25,207.0,205.25,209.0,205.0,200.0,200.25,198.25,199.5,201.0,203.75,209.25,217.0,223.25,224.5,228.5,237.0,241.75,247.75,252.5,260.25,265.25,264.5,263.5,261.0,260.0,259.5,263.75,269.5,274.5,282.75,296.75,309.0,321.5,335.5,341.25,331.75,316.5,325.75,347.0,362.5,383.5,401.25,421.25,440.5,448.5,458.0,455.25,459.25,457.0,448.25,460.0,473.0,458.75,453.5,467.5,498.25,524.25,544.0,549.0,538.0,515.5,488.75,468.5,454.0,441.5,415.25,396.75,386.0,375.5,365.0,346.5,337.5,328.25,322.0,314.25,310.0,298.5,290.5,291.5,294.5,298.75,301.25,302.5,308.5,323.0
130.5,132.5,132.0,129.9479938,129.0,123.5,117.5,112.0,110.3336388,111.0,114.5,114.0,116.0,117.7006649,117.0,117.5,119.5,123.5,124.6044298,127.0,132.5,142.5,152.0,155.7904083,161.0,163.5,165.5,172.0,174.6892266,175.0,174.5,176.0,179.0,182.8686277,183.5,178.5,181.0,189.5,196.117894,201.0,203.5,206.5,202.5,199.7512098,198.0,198.0,208.0,199.5,186.8949757,175.5,174.0,186.0,190.5,180.5075963,169.5,164.0,161.5,158.0,157.2082274,157.5,162.5,162.0,161.5,164.5097653,169.5,174.5,177.5,183.0,184.4865754,185.0,188.5,190.0,190.5,193.1860562,195.0,200.0,212.5,219.0,224.7901175,228.0,231.0,235.0,244.5,248.2143665,258.5,277.0,291.0,300.5,299.8289355,294.0,285.5,283.5,282.5,274.6369023,274.5,272.0,260.0,244.5,236.6348065,230.0,226.5,222.0,223.5,220.166726,217.5,220.5,232.5,248.5,251.2088665,245.0,229.0,226.0,223.0,220.0630695,217.0,208.0,208.0,214.0,211.8070268,205.5,201.5,199.0,201.5,203.1750398,206.5,210.0,216.0,220.0,221.8183341,225.0,230.0,236.5,246.0,249.9531792,256.5,265.5,273.0,269.5,268.587281,269.0,265.5,267.5,269.0,273.0965817,274.5,285.0,297.5,311.0,324.9070133,339.0,342.5,325.0,325.0,336.20743,351.0,372.0,389.0,412.5,433.3447215,452.5,464.5,470.0,476.0,474.1316639,464.0,473.5,486.5,470.5,464.7567791,473.0,497.5,524.0,550.5,554.4652996,539.5,512.5,481.5,456.5,446.9741636,434.0,414.0,393.0,375.5,366.9125693,356.5,346.5,339.5,335.0,327.4112777,316.5,310.0,299.0,292.0,293.3991858,296.0,299.5,302.0,305.0,310.7990758,323.5
121.25,124.5,120.25,119.5,119.75,115.5,109.75,107.5,108.0,108.75,111.25,112.0,113.75,115.0,115.0,116.0,119.0,125.0,127.5,131.25,134.0,143.75,153.75,159.5,160.0,160.75,163.75,168.0,170.0,168.0,166.5,167.5,174.75,176.0,171.25,170.75,177.75,189.75,196.0,195.0,193.0,192.5,192.25,188.5,186.25,190.75,201.25,193.75,181.5,172.75,173.0,184.5,188.25,177.0,167.0,158.25,156.0,156.0,157.5,159.5,161.75,160.25,161.25,165.0,170.0,173.25,177.0,179.0,180.5,182.5,186.0,188.5,189.5,191.5,196.5,205.25,218.75,229.0,235.5,234.25,235.0,235.0,241.0,247.0,255.75,277.0,291.5,298.0,295.5,284.75,274.75,275.5,273.75,267.5,267.5,266.75,261.5,247.5,242.0,241.25,234.75,226.0,228.25,224.5,222.5,223.5,233.5,249.75,252.0,245.0,236.0,235.25,232.0,227.0,219.5,211.5,212.75,217.75,219.0,212.0,205.5,202.75,203.75,205.5,208.25,210.75,216.75,221.5,223.0,226.25,230.0,235.0,243.25,247.0,254.5,267.0,277.75,278.0,278.5,278.5,277.5,278.75,280.0,279.5,276.75,280.0,289.5,304.5,319.5,337.5,351.25,339.75,327.0,329.0,340.5,358.0,375.75,402.5,425.5,442.75,456.0,467.5,481.75,488.5,485.0,489.25,501.25,486.5,476.0,492.5,506.5,530.0,557.75,559.5,536.0,506.75,475.0,455.5,448.5,443.75,428.0,400.25,376.0,364.0,358.75,354.75,351.25,350.0,336.5,325.25,315.25,304.75,293.75,294.0,296.0,299.75,304.5,307.0,310.5,320.25
110.75,114.25,112.25,109.5,110.5,107.5,104.5,106.0,106.0,107.5,109.0,111.0,114.5,114.0,113.5,113.75,116.25,123.75,129.5,134.5,138.5,146.25,151.25,151.0,149.0,148.75,152.25,153.5,155.0,153.0,155.25,165.0,168.5,161.5,160.5,172.0,182.25,191.5,192.5,185.75,179.5,179.25,179.25,181.0,186.0,197.0,202.25,189.25,175.5,169.75,170.5,179.25,181.5,172.5,162.25,151.75,152.5,156.75,159.5,159.0,160.75,160.5,163.25,170.5,177.25,179.25,182.75,184.5,183.5,185.75,191.25,199.5,202.0,202.0,202.0,211.25,218.25,228.5,239.0,244.0,247.25,247.25,251.5,259.0,261.5,274.5,288.25,295.75,292.5,277.0,260.5,258.0,256.25,248.5,249.5,256.25,257.0,246.0,248.0,257.5,246.0,234.0,237.0,230.5,229.5,233.75,237.25,253.0,258.0,250.25,251.0,251.0,238.75,230.0,222.75,221.0,221.25,224.0,223.5,214.25,211.5,206.5,205.5,205.5,207.0,209.75,216.0,222.75,228.5,234.75,239.25,241.5,245.75,252.0,258.0,271.25,276.25,284.25,289.0,291.25,292.0,295.25,294.75,296.0,293.75,287.5,288.25,301.0,313.0,333.0,354.25,354.75,342.0,333.5,335.25,346.5,363.25,391.5,412.0,422.75,434.5,444.0,467.75,483.5,493.75,509.25,515.75,508.5,510.5,523.5,528.75,551.25,575.5,566.0,540.0,510.5,484.0,475.0,470.5,464.75,448.25,411.75,383.25,370.0,373.0,375.25,373.75,367.5,354.5,343.5,328.25,314.0,299.0,295.0,296.0,301.0,309.0,307.5,307.5,314.25
103.5,106.75,107.75,107.0,105.75,104.75,105.25,106.5,107.0,107.5,109.75,111.75,113.5,114.0,113.75,114.0,116.5,122.25,127.5,130.75,136.75,143.25,142.25,141.5,139.75,141.5,142.5,144.25,143.0,142.5,154.5,163.25,159.75,153.0,158.0,169.0,182.0,189.5,188.5,179.75,170.75,172.0,175.75,181.5,192.75,206.25,209.25,194.75,178.5,167.0,164.0,173.25,172.25,162.5,154.75,150.0,152.75,156.75,158.0,157.5,160.5,162.0,168.5,176.0,185.25,191.0,196.25,196.0,193.0,190.25,193.5,207.75,219.5,219.0,213.5,216.0,221.75,227.0,235.0,244.25,256.75,267.25,272.5,275.5,275.25,278.0,284.25,292.75,291.5,279.5,256.5,245.75,242.25,239.0,239.0,248.75,248.5,246.0,256.0,266.0,258.25,252.0,247.25,239.0,238.5,244.5,248.0,259.25,265.0,260.75,263.5,258.0,240.75,229.5,224.5,229.0,231.75,228.0,224.0,214.5,212.75,208.0,206.0,206.5,207.25,209.25,214.75,221.5,230.0,240.5,245.0,243.25,245.25,252.5,255.75,263.5,267.0,273.75,287.0,294.5,297.5,295.25,296.0,301.0,301.25,295.0,292.0,300.5,311.5,327.25,347.5,358.25,358.0,355.0,351.5,347.75,357.0,382.0,394.5,401.0,414.5,429.5,451.25,472.0,495.5,522.25,527.25,531.5,541.0,548.5,553.0,569.75,589.25,578.5,557.5,531.25,507.5,495.0,489.5,480.75,456.25,420.0,392.25,386.5,399.75,398.0,393.5,384.5,373.0,360.25,339.25,319.0,303.0,297.5,296.25,303.25,311.0,311.0,308.5,312.75
100.5,103.0,103.5,105.0,103.25,103.5,104.0,106.0,105.5,105.75,109.25,111.75,112.25,113.0,111.0,111.75,114.5,120.25,123.5,123.25,128.0,131.5,131.5,129.5,132.25,134.5,134.0,136.75,136.0,138.75,153.0,154.0,150.75,148.5,155.0,165.25,175.75,182.0,180.0,171.75,165.25,173.5,178.5,183.5,192.75,209.0,210.5,195.75,181.5,164.0,157.75,164.5,161.25,151.5,149.75,151.5,154.25,155.5,154.0,155.25,162.5,169.5,173.75,174.5,180.5,190.0,199.0,205.75,204.0,196.25,193.5,204.0,222.25,228.5,227.25,226.75,231.5,239.0,245.5,253.25,264.75,280.0,289.25,288.5,290.5,292.75,292.5,296.5,294.5,282.75,260.25,241.75,234.5,231.5,232.5,238.75,240.75,252.25,263.0,270.25,270.0,268.25,261.25,255.5,253.75,255.5,265.0,267.75,272.0,275.5,272.75,259.0,244.5,239.0,239.25,241.0,238.0,228.75,220.0,216.75,216.75,213.25,209.25,209.0,209.0,209.75,215.75,220.25,225.5,233.5,236.5,231.75,240.0,247.0,247.5,251.25,255.5,266.5,277.5,284.0,284.75,281.0,282.0,288.0,293.75,291.25,292.0,300.75,310.0,321.25,333.5,351.25,369.0,372.5,368.75,358.0,355.0,370.0,377.0,387.75,413.0,438.0,457.5,478.0,502.0,523.0,534.0,545.5,549.5,556.5,565.75,581.5,592.75,590.5,575.0,552.0,529.0,509.25,496.0,480.0,452.0,420.5,413.0,415.0,428.0,422.25,406.75,388.75,375.0,356.25,335.5,317.75,303.25,298.5,298.0,305.25,312.75,310.5,310.0,316.75
101.0,101.0,101.0,101.4071433,102.0,103.0,103.0,105.5,104.9143219,104.5,107.5,110.5,112.0,111.9799991,110.5,111.0,113.0,116.5,117.9928224,119.5,123.5,123.0,123.0,123.5328646,128.5,130.5,130.0,132.5,133.4742315,136.5,146.0,144.0,145.5,149.7860719,157.5,167.5,172.5,173.5,169.3300567,165.0,164.0,173.5,184.5,191.4110611,199.5,208.5,207.5,191.5,178.5991723,163.0,152.5,155.5,152.5,149.4328447,149.5,151.0,153.5,153.5,153.3309036,156.5,167.0,178.0,179.0,179.2385897,180.0,184.5,193.5,206.0,208.8082428,205.0,197.5,201.0,219.5,231.5918589,236.5,236.0,237.0,244.0,249.9690635,257.0,267.5,280.0,287.5,289.3805457,295.5,299.0,298.5,297.0,289.911192,280.5,262.5,243.0,226.5,224.7682658,225.5,230.0,237.5,254.0,260.4953183,265.0,268.5,272.5,273.0,271.1930112,270.0,269.0,275.0,279.0,282.325752,286.0,279.0,262.5,250.0,252.693597,256.0,248.5,237.5,229.0,223.3150655,220.0,223.5,221.5,214.5,212.0568022,210.5,211.5,217.0,219.5,222.9761002,227.0,228.0,228.0,238.5,242.6529555,242.5,243.0,252.5,264.0,269.6912874,272.0,270.5,268.5,270.5,274.336553,282.5,283.5,284.0,294.5,299.3515265,306.5,317.5,338.0,365.0,378.6482228,385.5,374.0,361.0,364.0,372.9181288,387.5,415.0,444.0,469.0,486.7417127,504.0,513.5,523.5,536.5,540.9840749,546.0,560.0,577.0,589.0,590.4386972,579.5,556.5,531.0,506.5,487.9309078,472.0,444.0,424.5,428.5,433.7003527,439.5,431.0,406.5,382.5,366.4224947,346.0,329.0,317.5,306.0,300.9695249,299.5,306.0,315.0,309.0,309.6247212,316.0
97.5,99.0,100.0,99.5,100.5,103.0,102.75,104.5,104.0,103.75,107.0,110.0,111.25,111.5,110.5,110.5,112.0,114.0,114.5,116.0,119.5,119.25,119.25,119.5,123.0,125.0,127.0,129.75,130.5,133.25,138.5,138.0,141.75,150.0,158.5,168.0,169.25,165.0,160.5,162.25,168.0,174.0,184.75,194.5,203.75,208.5,205.0,186.25,173.0,162.0,151.25,149.75,148.25,148.0,150.0,151.25,151.75,151.75,153.5,160.0,168.75,181.25,185.25,185.5,184.0,187.5,195.0,205.25,214.0,211.5,204.75,207.75,223.0,238.5,243.75,241.0,235.0,235.25,245.0,253.75,268.5,272.5,272.75,277.5,281.5,294.5,296.0,287.0,278.0,270.25,262.0,243.5,224.25,221.5,223.5,231.75,245.25,254.0,254.0,253.5,258.0,269.5,280.75,284.0,283.25,282.25,281.75,284.75,290.0,293.0,285.5,272.75,265.25,263.5,260.25,248.0,235.75,230.0,230.0,230.5,232.25,231.25,224.25,216.0,212.75,213.0,219.75,221.0,222.0,223.0,222.5,228.0,239.25,240.5,238.25,240.25,252.75,258.25,261.5,260.25,259.75,260.25,262.5,264.5,269.0,272.5,275.0,285.5,290.5,293.5,306.5,328.5,356.5,380.0,396.0,391.75,378.0,367.5,370.5,386.25,413.25,440.0,467.75,486.0,494.25,496.75,508.75,523.0,526.0,533.25,546.25,558.25,579.75,593.0,582.0,550.0,521.25,489.75,473.0,458.0,437.0,432.0,443.75,447.5,442.5,424.0,397.75,374.0,356.0,337.0,329.5,322.75,310.0,303.5,301.75,304.0,311.25,311.25,310.5,317.0
95.75,97.5,99.25,100.5,101.5,104.75,104.5,105.5,105.0,104.5,108.0,107.5,107.75,109.0,108.25,108.0,110.25,111.75,114.5,116.0,117.5,118.25,122.25,125.0,123.5,125.5,126.5,127.75,128.5,130.25,130.5,135.5,141.5,146.0,153.5,159.0,159.0,157.0,159.5,166.75,177.5,183.75,189.5,194.0,201.5,200.0,196.0,184.5,170.0,159.5,149.75,147.0,146.25,147.0,147.75,148.5,148.75,151.75,154.5,157.5,164.5,175.5,184.75,188.0,188.25,196.0,204.5,211.25,217.5,217.5,218.75,224.0,234.0,242.0,243.0,235.0,228.25,222.5,230.0,245.0,256.5,253.25,253.25,256.5,263.0,280.5,287.75,277.75,264.0,254.0,246.75,237.5,222.75,217.5,219.0,230.25,242.0,242.75,242.0,247.25,261.5,271.0,284.0,289.5,290.0,283.5,278.75,281.25,287.5,293.5,294.5,288.5,282.0,271.0,259.75,244.0,236.5,235.75,241.5,246.5,246.25,241.5,233.75,222.5,216.25,215.75,222.0,222.25,222.0,219.75,220.25,227.25,231.75,233.5,234.25,238.5,244.25,245.75,247.5,250.75,253.75,255.25,257.5,259.5,261.5,266.0,268.75,277.5,283.5,292.25,305.5,324.75,350.5,372.0,391.5,402.75,399.25,386.25,377.5,382.25,408.5,433.5,456.5,467.5,471.0,473.75,490.5,499.5,503.0,508.75,524.0,541.0,573.25,596.0,585.25,553.5,520.25,491.75,473.5,454.5,443.0,449.25,453.0,447.5,433.0,401.75,381.5,362.75,346.5,338.5,341.5,336.75,317.25,305.0,304.25,305.25,310.0,313.25,316.5,320.25
95.0,96.75,97.75,99.5,99.25,103.0,103.0,103.25,104.5,105.0,108.0,106.75,105.5,105.0,106.5,107.75,110.75,111.75,113.0,116.0,120.75,122.75,128.25,131.0,129.25,132.25,131.75,134.25,134.5,132.75,131.0,136.0,142.25,143.5,147.0,150.25,150.25,156.5,162.5,172.75,189.75,195.0,200.0,200.5,200.5,190.5,184.25,181.75,169.5,158.0,147.75,144.0,144.25,144.5,146.75,148.0,149.5,156.5,161.5,161.5,163.25,167.5,172.0,175.5,180.0,193.5,200.25,204.0,211.0,216.0,226.25,235.5,239.5,236.5,229.5,220.0,217.25,215.5,226.0,236.25,239.25,236.25,234.25,242.5,254.5,271.25,281.75,274.0,261.5,246.25,230.0,227.25,215.75,212.0,214.75,223.5,230.5,235.0,239.0,250.25,266.25,274.75,278.75,280.5,279.75,272.25,268.75,276.75,287.0,294.25,296.75,295.5,291.0,278.5,263.75,247.5,242.25,246.25,253.0,253.75,247.0,238.25,230.75,223.5,218.75,217.25,218.75,221.25,222.0,220.5,223.0,226.5,228.5,231.0,232.75,234.5,238.25,240.25,243.0,247.75,250.5,254.0,259.5,264.0,266.5,267.75,271.5,282.5,288.5,295.75,307.5,321.75,340.75,359.0,376.75,391.25,401.0,401.5,395.0,391.5,404.75,423.75,441.0,450.0,453.25,458.0,468.0,476.75,485.5,494.75,511.0,542.0,575.5,594.5,588.5,560.25,526.75,495.0,475.0,458.25,452.25,467.0,460.75,444.0,424.0,395.0,373.0,356.5,347.5,354.0,359.75,350.25,328.5,314.5,307.5,307.5,311.0,315.25,319.5,321.75
92.75,96.0,97.0,99.0,98.75,102.25,101.5,101.25,101.5,103.25,104.75,106.25,105.5,106.5,108.5,108.5,110.5,111.5,113.0,119.0,125.5,131.25,137.5,140.0,140.25,141.0,142.0,146.5,147.5,143.5,141.75,147.75,150.0,149.0,151.0,150.5,150.75,158.0,168.0,178.0,191.5,197.25,197.0,196.5,195.75,186.0,173.75,172.75,164.5,154.75,144.5,142.5,144.25,145.0,146.5,149.0,153.75,163.0,170.0,173.0,174.0,172.0,171.0,172.5,173.75,182.25,188.25,193.5,205.0,215.5,230.25,234.25,228.5,222.0,215.25,207.0,203.75,211.25,222.5,226.25,227.75,225.0,228.0,241.5,259.0,269.25,268.5,259.0,255.0,246.75,229.25,216.25,207.5,207.5,212.25,219.5,229.5,236.0,241.0,247.5,262.0,273.0,266.75,261.0,259.25,258.0,264.5,280.25,289.0,288.75,284.25,288.0,292.0,281.5,273.0,261.25,252.0,259.0,263.0,255.5,241.75,232.0,227.5,223.0,220.5,218.0,218.0,219.5,220.0,220.75,223.75,227.25,229.0,232.0,233.75,236.25,239.75,245.0,246.5,250.75,252.0,256.5,262.75,273.5,281.25,280.75,282.75,290.0,301.5,309.0,313.0,318.75,333.0,350.0,360.75,373.5,388.0,406.0,406.5,403.5,410.75,419.75,428.0,435.5,444.25,455.0,459.25,469.0,484.5,500.75,521.25,547.5,579.5,596.5,588.0,552.5,517.75,492.75,481.0,473.0,474.5,484.75,466.25,446.5,421.25,399.0,385.75,365.25,357.5,366.75,377.75,365.5,340.75,325.5,315.0,308.75,312.0,315.5,318.5,322.0
91.5,96.0,96.0,98.40653512,100.0,102.0,101.0,101.5,101.3601708,102.0,103.0,105.0,105.0,105.970404,107.5,107.0,107.5,109.5,113.3701446,120.0,127.5,133.5,140.0,142.9557819,144.5,143.0,145.5,152.0,153.3189526,152.0,150.5,157.0,161.0,161.2229931,161.5,157.0,154.0,157.5,166.3701861,175.5,189.0,191.0,186.5,187.4154392,189.5,183.5,169.0,163.5,159.0118977,150.0,141.5,142.5,145.0,146.0136774,147.5,149.5,156.0,164.0,170.1772624,175.5,178.5,178.0,175.5,176.819335,176.0,179.0,186.0,195.0,208.2007916,220.0,231.0,229.0,216.0,210.4426597,208.0,200.5,197.5,207.5,211.5895906,214.5,219.5,225.0,238.5,251.6268042,266.5,266.5,254.0,243.5,241.3245462,241.5,229.0,212.5,203.5,203.9222209,209.5,222.5,235.0,243.5,246.8615633,250.0,263.0,274.0,263.5,251.7225141,247.5,250.5,265.0,280.0,282.689708,280.0,272.0,280.5,292.0,289.2614708,282.5,273.0,261.5,267.5,266.0223319,253.5,242.0,238.5,234.5,228.1050755,224.5,219.5,219.0,219.0,220.6734268,222.5,224.5,228.0,228.0,231.6253297,234.5,239.5,245.0,251.5,253.8535745,256.5,257.0,261.0,265.0,275.0116882,285.5,292.0,293.0,295.5,306.535308,317.0,322.5,328.0,338.5,345.7502428,351.0,358.0,377.0,398.5,403.8492412,408.5,418.5,427.0,427.5,435.0340305,449.0,464.5,469.5,474.0,483.7987363,501.5,526.5,551.0,582.0,596.7838869,594.0,551.5,517.5,498.5,495.4008364,492.5,493.0,492.5,464.0,444.0598303,419.0,409.5,397.0,374.5,369.7269894,376.5,390.5,375.0,351.5,334.3653457,323.0,312.0,312.5,316.0,317.9904048,322.0
91.25,95.0,95.25,97.5,99.75,101.5,100.0,101.25,102.0,101.25,101.75,103.75,104.75,105.0,106.5,106.0,106.75,108.5,114.0,118.75,124.25,130.25,134.75,139.5,139.0,138.25,139.25,148.75,155.0,155.75,155.0,160.5,167.5,169.0,169.5,167.5,163.25,160.75,165.0,170.75,179.0,180.25,178.0,181.0,185.0,179.0,164.75,155.5,151.0,142.75,139.75,142.5,145.0,147.0,149.25,151.25,154.75,161.75,169.0,171.5,176.25,184.25,186.75,186.0,183.0,184.0,192.0,200.5,214.0,219.5,223.0,220.0,206.25,199.0,199.75,194.75,194.75,201.25,201.0,205.0,217.25,227.0,246.25,262.5,269.5,259.75,243.25,229.25,226.0,231.25,227.25,210.25,199.0,201.5,208.75,223.75,239.75,252.25,254.0,254.75,265.0,271.25,260.25,244.5,239.25,249.25,264.0,274.75,275.0,268.0,263.0,277.25,292.75,299.0,297.5,287.5,274.25,275.75,268.5,255.0,248.75,248.5,239.75,231.5,226.5,224.25,224.5,220.25,222.0,224.25,224.5,227.0,228.25,231.5,233.5,240.0,248.75,255.0,259.5,263.0,265.25,267.75,270.5,278.0,287.25,298.0,302.5,307.25,312.0,319.75,329.5,334.5,338.75,344.0,342.75,344.25,367.25,383.75,392.5,399.25,414.75,428.75,432.5,438.0,451.25,470.75,484.5,489.0,488.5,496.25,517.75,543.0,572.75,598.0,596.0,562.75,531.75,509.5,510.0,517.0,519.0,506.25,467.25,447.0,432.25,420.25,404.0,384.25,384.0,393.0,403.0,385.75,358.25,341.0,327.5,314.0,313.75,317.0,317.0,321.5
90.25,92.75,94.25,96.0,98.75,100.0,98.0,99.5,99.5,100.5,102.25,102.5,103.5,104.5,105.0,105.25,105.75,107.25,112.0,115.5,119.75,123.25,126.75,130.0,128.0,127.75,133.0,143.5,150.5,153.75,152.0,155.5,166.25,172.0,172.0,177.75,176.5,170.25,166.0,166.0,167.0,170.0,173.75,178.5,178.75,173.5,159.5,148.25,143.0,137.0,138.75,140.75,142.5,145.0,152.5,157.75,159.25,162.25,166.0,167.0,174.75,187.0,195.0,195.5,192.0,191.0,201.0,208.75,215.0,214.0,205.25,203.75,197.25,188.0,185.75,189.25,194.25,199.5,200.0,204.5,219.0,233.75,256.0,266.0,264.0,247.75,228.75,217.75,217.0,222.75,217.25,201.0,197.0,201.5,212.5,229.0,242.0,250.0,255.5,262.25,269.5,265.0,250.75,238.0,232.5,244.25,254.25,262.0,262.0,255.75,261.0,280.25,299.5,311.5,315.75,305.5,293.75,282.25,271.0,263.0,259.75,250.75,239.75,231.5,226.75,232.25,231.75,223.75,224.0,225.0,225.25,227.75,230.0,230.5,232.25,239.25,249.0,251.75,257.5,264.25,268.5,269.25,270.0,273.0,281.25,295.25,309.75,313.75,312.0,313.0,325.0,328.75,327.25,327.0,326.25,330.25,351.75,365.25,375.0,383.75,399.75,419.75,437.25,441.5,450.0,466.5,490.25,505.0,507.5,505.75,512.75,531.75,562.25,598.5,603.5,582.5,554.25,531.0,534.0,541.5,540.5,519.5,483.25,466.0,456.5,442.5,421.5,406.75,413.0,419.25,422.25,403.75,370.5,350.0,332.5,316.5,314.75,316.75,318.0,323.75
91.25,91.75,93.0,94.0,98.0,97.25,96.5,98.0,96.0,97.5,100.0,99.5,101.75,103.0,103.75,105.0,104.5,106.75,109.0,111.25,115.5,117.5,121.5,123.0,120.25,124.25,133.0,139.75,143.5,142.25,138.75,146.0,154.25,158.0,162.0,174.75,178.25,174.25,173.5,173.75,169.5,171.0,176.25,180.0,180.25,170.75,156.25,145.0,139.0,135.25,138.0,138.5,141.75,148.0,151.5,161.25,168.0,170.75,170.5,167.75,169.75,181.0,190.25,197.0,199.5,199.25,205.5,208.0,203.0,198.75,192.25,190.25,186.75,182.5,189.0,199.5,208.0,212.5,213.5,214.25,222.0,239.75,257.5,262.0,255.75,241.75,225.0,210.75,205.5,209.0,203.5,193.0,197.5,205.5,218.0,231.0,234.75,241.5,251.0,262.25,270.75,260.75,244.5,231.5,224.5,232.5,240.5,247.5,246.0,245.75,262.5,283.25,304.25,318.5,323.75,316.75,308.5,296.0,284.5,278.5,268.0,256.0,245.25,237.0,232.0,236.0,234.0,227.5,225.5,225.25,229.75,229.75,232.0,232.0,234.5,238.75,244.75,244.75,249.5,257.75,262.5,263.75,263.5,267.0,273.75,289.0,304.75,308.25,304.0,303.25,310.25,313.25,313.25,310.5,310.75,319.0,335.0,345.75,360.0,370.25,382.75,399.75,428.25,446.5,452.75,463.75,484.25,504.0,516.5,523.5,526.5,541.25,572.25,605.5,616.5,603.25,575.75,555.0,559.0,561.25,554.0,529.5,506.0,498.0,486.0,464.75,438.75,431.75,435.5,441.75,444.25,421.75,387.25,362.0,341.25,319.0,316.5,315.25,316.0,319.0
93.25,92.75,92.75,93.5,98.0,99.25,94.5,95.5,95.5,96.75,97.25,99.75,102.5,103.5,102.75,103.0,104.0,105.5,107.5,109.25,112.0,114.0,116.75,119.0,118.5,122.5,129.25,131.5,132.5,131.25,131.25,136.75,142.0,146.0,154.75,165.25,163.0,170.25,178.5,179.25,179.0,180.0,182.0,185.5,184.0,170.5,151.75,139.75,136.5,135.75,137.25,137.5,142.25,147.5,149.25,153.25,164.5,176.5,177.5,173.75,172.75,184.75,189.0,192.5,199.0,197.0,197.5,196.75,190.0,184.25,179.25,179.25,181.25,183.5,194.0,208.5,218.0,224.5,228.5,230.5,229.75,237.0,253.25,251.0,244.75,239.5,228.25,210.25,199.5,197.75,194.25,188.25,199.5,205.0,212.0,225.75,234.5,245.0,254.0,261.0,262.75,257.5,244.5,230.0,219.0,223.75,233.0,235.0,234.5,239.5,256.75,274.75,296.25,315.0,319.5,310.25,309.0,307.5,304.0,298.5,284.75,272.25,259.25,252.0,244.75,240.75,239.25,233.75,228.5,228.75,235.75,235.25,234.0,234.5,236.25,238.5,240.0,241.75,243.5,247.75,252.0,257.75,259.25,265.5,271.0,279.0,291.5,294.25,292.0,288.75,293.75,298.75,300.0,299.5,305.25,317.0,327.5,336.0,348.0,360.75,370.5,392.0,420.25,445.0,462.25,471.5,479.25,494.0,510.5,527.25,543.0,558.0,589.25,615.0,626.75,612.0,587.25,574.75,573.5,571.25,561.5,535.5,518.25,518.0,507.5,485.5,462.75,448.75,450.0,453.5,448.5,426.75,393.5,366.5,345.25,323.25,320.75,316.25,317.0,320.25
94.0,94.0,94.0,94.6751215,96.0,99.5,96.0,96.0,95.83084934,96.0,95.0,99.0,100.5,101.1006056,101.0,101.5,104.5,106.0,106.036513,106.5,108.5,111.5,113.0,114.6512902,115.5,119.0,124.0,126.0,126.0098196,126.5,129.0,133.5,139.5,146.6904111,156.0,158.5,153.5,163.5,172.612195,176.5,177.5,178.5,182.0,181.4155664,178.5,165.0,145.5,137.0,135.4244436,135.0,135.5,139.0,146.0,149.8624424,152.0,153.0,159.5,171.0,176.3060322,180.0,182.5,191.0,192.5,189.7344848,190.5,188.0,186.0,187.5,181.3938461,174.0,173.0,177.0,182.0,186.0441648,192.5,207.5,220.0,227.0,232.033773,238.0,238.5,241.0,246.5,239.3068187,233.0,233.0,226.0,208.5,198.0626269,192.5,190.0,188.0,194.0,204.0044534,215.0,228.0,242.0,251.0,256.9140542,256.0,249.5,248.0,239.0,228.5320657,217.5,222.5,228.0,227.0,229.8683241,236.0,252.0,268.5,290.0,304.7069767,311.5,303.0,300.0,302.0,307.4350991,307.5,297.0,283.5,271.5,265.2300217,255.0,243.5,245.0,239.0,234.4607093,233.0,241.0,241.0,235.5,235.0995651,234.5,238.0,240.0,242.5,244.1549582,247.0,250.5,254.0,258.5,262.965778,267.0,272.0,280.0,283.0,283.8179166,282.5,286.0,293.0,296.5,300.381761,310.5,326.5,330.5,339.0,349.9584449,359.0,373.0,388.5,417.5,443.6449822,469.0,481.0,484.5,494.5,506.7131028,524.5,550.5,570.0,592.5,615.9069789,628.5,613.5,593.5,576.5,565.0887188,559.5,552.5,536.5,524.0,520.2274744,520.5,497.0,474.0,453.5,442.0652383,436.0,438.0,424.0,395.0,371.294771,348.5,325.5,320.5,318.5,319.4618136,322.0
